-1.2229071668194518 22.266321131996126 7.773448400522877
-1.743818228054159 20.512167015675587 10.816959310639536
-4.427230611080803 18.126465615318793 12.236720767610642
-7.740848946528804 16.544598881787305 10.871065361988183
-11.121216397958102 15.940911883425127 9.034785121969371
-14.314877114567576 15.573590217572084 6.884845683257962
-17.035952014770185 15.230108836181742 4.215065452904488
-16.85687895763164 16.769730261569137 0.8522276259486475
-12.40797379625688 18.146053188052093 -0.9909521811611995
-12.547358567368997 19.259731428123285 -3.819038180009034
-14.875483625943959 18.06116096704931 -2.3691879609135356
-18.11391908435295 15.68114915044832 -1.6575772122812804
-20.19201853109934 12.445191542886706 -3.520314664906692
-18.685877560367313 10.9785995930826 -6.519854866993442
-17.659398488605387 9.61424939831739 -10.216886461184574
-16.53184018423256 8.187654645251326 -13.661785728233479
-14.510326110320756 6.748116277383052 -16.43996573326197
-11.559811564396117 7.81654606068333 -17.875863540788174
-8.662372778155042 11.601713234532708 -15.861099417563514
-6.3323501021955355 13.08386671072392 -17.267727920708847
-7.917793523889085 10.557451970998793 -18.283919451531958
-8.932454381630619 7.135225201944988 -18.683377700354598
-7.045761093014285 4.279423277355627 -20.181094655643
-3.2823860999376193 4.477078316117763 -20.85407544238453
2.6069199394524256 5.236201738315004 -21.719989619684764
8.626869600264989 5.976249503440429 -22.352038026359693
10.71206521803958 9.250389703922544 -21.149955537636306
8.791340483296821 12.71839724948435 -18.336860225090174
10.459017083212363 15.277704373122686 -17.395609267805327
11.556082633226751 12.698161290839154 -18.85112455084262
12.824155500102593 9.353929639728989 -19.284302588480003
15.065743873376897 7.457765743214047 -17.082308131369093
16.025471422196237 9.150809491421922 -12.288748844314117
18.153304355287712 7.529525981636417 -10.533518579005145
16.965589944139513 6.780288040785765 -13.16994499272478
15.382441310716873 4.94918395914249 -15.818091141688955
15.175686426109584 1.410782479456474 -16.42434514940494
16.39981210226381 -1.8245502098675161 -12.65364533691215
17.466250518818082 -4.698654057828939 -13.476954868162759
16.32451097638843 -2.5766873495677265 -15.240819848222507
14.058746392208617 -0.8537718928302681 -17.720187528243226
11.46015158504703 -2.0722153471401916 -20.59778309288582
9.749675350360679 -6.148889415023249 -20.462373666726425
6.8979869617546035 -6.458754365896226 -21.169757610719184
8.500308875773477 -4.084992624716887 -21.75464077896273
10.0652757094691 -0.6307851260697593 -22.52148242820115
8.466600509410414 2.8744374174415284 -22.812241848340324
4.65170307827739 2.915689332602032 -22.47069903303034
0.5992061072820875 2.7238568621090504 -22.43652296577853
-3.28121924253699 2.613051866441523 -22.342110947665837
-7.384000709251645 2.0249927557974563 -21.97615625732534
-9.66094375966689 -1.027928080390343 -21.9618576538591
-7.558220447587091 -5.128361152169765 -21.82295752632445
-8.416995816619348 -7.159847555379116 -19.866451972833087
-9.983524119010838 -4.81651710541517 -20.570712836621123
-12.079450529631279 -2.063562016340143 -20.963033353700986
-15.067994187759268 -1.6442997052163726 -19.255775139574737
-15.986395805106648 -4.84142079593844 -15.294313382076764
-18.813108824905292 -4.694297720084651 -14.132004150291966
-17.755457605609376 -2.8031548705697817 -16.204302283237713
-16.735136036894907 0.6056154776838818 -17.661775476235743
-16.57229980527272 4.724422745226956 -16.527994398467133
-17.480259791258845 6.041968111367065 -13.196016893609743
-19.710208422974905 8.207826975242133 -8.027716641081796
-20.683023583236405 9.942358224932788 -2.4836712992104726
-22.16814551148517 7.706019915628484 0.19891926142554134
-23.04983991759151 3.0732268329429875 -0.85681421118144
-22.98493517028828 0.9617359642577963 1.2806328409336303
-23.262106482987253 3.8215130718519594 1.8131504860385805
-23.505256756804613 7.310750292954003 2.891422771381691
-22.67308515104683 8.643647223120048 6.374399862787277
-20.569761264866486 5.796284575983315 9.660523644129825
-20.038314097737047 6.750782183960476 12.662324271087774
-20.925455464260722 8.536191344243035 10.194195700631644
-20.76391185617721 10.497327327381317 7.158761420332371
-18.324162830591817 13.075338247389288 6.1270265956750505
-15.32067303517373 13.91387508562849 8.318272594416317
-10.60211244775041 15.294130839666616 12.028499170493161
-5.000069338765384 15.988480888896635 14.132707070167072
-3.7124510723442485 14.383538940265314 16.740585424946076
-6.043756972088747 11.54223665900556 18.29637123819732
-8.415404572399517 8.486999523794735 19.602844129009927
-10.566081133082465 5.315286278291514 20.5246876135056
-12.650105276687857 1.891130610203684 20.36552200641889
-15.966242438904668 0.7438911747798553 18.45945300425
-18.160307856045144 3.8015974777194184 15.466440597535977
-19.692759889780124 2.909069379683043 12.975313011719978
-18.936291811936584 1.1855525723869058 15.223156488995395
-17.947559999575383 -1.2212388446838836 17.519084413062807
-17.60520460644539 -5.114635383592906 17.057300562204045
-18.479971876878185 -6.505749963035959 13.34541330946398
-19.861285749104603 -7.989087966758516 9.779848323477493
-20.98901701438184 -9.515177079422175 6.351177128021834
-21.655615987825254 -10.406531762622317 2.6660096707547334
-22.943863325104342 -8.338610259924709 -0.42157859272563636
-22.614024823588323 -3.3611794397893857 0.1676553459390973
-23.715170659767214 -1.2346979406367524 -1.8956955894040843
-23.589038385941016 -4.364571469687575 -2.3158600137888103
-22.42938767071885 -7.853428736700188 -3.2880600376997133
-21.15466064301939 -9.594250332758643 -7.041548439393962
-19.954392367335153 -7.1841701545583305 -10.6243862640374
-17.584664787679575 -8.049855465351454 -12.296972197476792
-18.991628053834667 -9.731762998253771 -10.383289971057014
-20.281486041837745 -12.019396323743418 -8.05740202638827
-18.353381351673498 -14.97864416536532 -7.032935369441526
-14.747231774001433 -15.299171386061062 -8.745055012662782
-11.374792060173323 -16.065798817848933 -10.887026888246899
-8.037417870012124 -16.766228854253008 -12.794195097042353
-4.650045231285898 -16.79929781174028 -14.64478848919959
-3.438835381761275 -14.982511013664677 -17.915188678727983
-5.7500898810001 -10.649880900742051 -18.99592359100857
-5.438297476291272 -9.032506852192 -21.59043104903601
-3.9060394731319796 -11.705726563959368 -20.9344631001754
-1.583712612704244 -14.393612236229801 -20.01421544023313
2.043556815069958 -14.464378980163659 -19.924454901339164
4.729007544573122 -10.205391562155844 -20.060344455721403
7.8232469460357095 -10.17120490355913 -20.368394057223544
6.04565934028761 -12.708856931131965 -19.802401758145994
4.145979571128309 -15.279498810640542 -18.136443236816408
4.980054165180547 -17.755330387040054 -15.191179419306668
8.1807458720782 -17.398622849067188 -13.085836186518796
13.248379478321155 -16.193088863459383 -10.083270440899838
17.212786180278083 -14.004677638993467 -6.3391479858230255
19.111381219440794 -10.515775993129019 -6.651940395336305
18.302398419925034 -7.72722416675576 -10.376674177754497
18.284098174374986 -4.733997054420351 -9.87093809108786
19.26522342345099 -6.674710928847771 -8.269790222629307
20.92076464635068 -8.51281096556675 -5.556232005966826
22.46851182859709 -7.251573470437469 -2.3466713406058606
21.965244538794522 -2.468536443467825 -0.8868283759198402
23.639402330122987 -1.1819689661573185 1.3618089045420236
23.442839531950877 -4.269740412309479 0.6806055331146906
22.329388099877665 -7.710735657154012 0.46237950156287105
20.95191777442178 -10.757124457003933 3.1546424113702733
19.328130703310045 -9.610586285847656 7.5766046665153155
17.856666686212513 -11.541094653161437 9.390193889773537
19.02153843425503 -12.252090701054481 6.59090729535326
19.73412100017223 -13.35250882824841 3.184033804526253
17.814287244037764 -16.221168396323606 1.4018426620902271
13.357467214941892 -17.883230071728935 3.033422696749159
12.18195957791685 -20.702292858048935 2.3106299039412623
14.681958459362793 -19.29865739358725 0.9808569111715221
16.903470521099237 -17.198072852078756 -1.0212964908990485
16.841289480936364 -16.22095310446883 -4.80138043918517
13.76143428336111 -17.156710230135097 -6.935071308558118
10.729937527715617 -18.400233979004007 -9.384117647733914
7.8021224430823874 -19.441244263363505 -11.74462592545746
4.221749919886039 -20.564395895275446 -13.574738599585281
0.9588763844964756 -22.142636533666682 -11.828558330729821
1.0027910212878641 -22.22417933908385 -7.163272974108136
-1.595775833739843 -22.219652056150203 -5.466292476691129
-1.2973099490448163 -21.738442586742288 -8.559812099490676
-0.7554101080895808 -20.314469154628767 -11.406711679439182
-3.2517427053544297 -18.496645622164586 -12.697004397876142
-6.942233985823085 -17.648243524457953 -10.897031357652827
-12.212910032452983 -17.226487810130998 -7.966903574496771
-17.17476493036636 -15.816243617075779 -4.4249275865694795
-17.313711990758936 -16.408093457557573 -0.8494632609557335
-13.357908024856922 -17.89698015820072 1.4545555229123182
-13.235947141047852 -18.678624888864565 4.413603608254474
-15.787248170367326 -17.600311875201115 2.9293005285101903
-18.385957988142202 -15.760006293601407 1.534179303887249
-20.23430283189303 -12.985365285460256 2.9279330947352675
-19.21079710306114 -11.154388169934439 6.352291128033369
-17.75097666517845 -9.371324721048286 11.980378865474384
-15.457765461792432 -7.09765627854581 17.12914629858463
-12.18952844041691 -8.203608285245279 18.858907927748504
-10.13606418634615 -10.804574129837803 16.990016013316847
-8.082751718019653 -13.933911675210016 15.35765235109333
-6.019184515882157 -16.832815366104953 13.731131885709356
-3.8866752238503364 -19.15053572400449 11.290481265097823
-4.957467861542281 -20.70194058238058 8.047939818777278
-9.231196475881488 -19.69702180249025 6.07597731636612
-9.687907847683631 -19.80131287515136 3.172871660323117
-7.39286355601096 -20.93001724906575 4.546010110345457
-4.565123651457652 -22.105541130093176 5.815089438248952
-1.7997670146911549 -23.207710228225036 4.102187374368529
-1.3384292320844244 -22.45866421181331 -1.0242537583904945
0.92031460187877 -23.374530310278637 -2.846339149329584
0.6219771760346386 -23.89350064776424 0.051584246775240775
1.0108532631689038 -23.80191181890996 3.6619402231779485
3.9998382948316986 -23.223116510307513 6.092456686932815
8.286881644610558 -21.886388789908835 4.1992349796354445
10.003514818672581 -19.706971035139194 5.384281668443923
7.801330003085518 -21.09701471236362 6.750394818593508
5.061141039418376 -22.30155724899252 8.858976265898159
4.1610537185684136 -20.824581382210802 12.30744274404578
6.108009058451177 -16.567911819599004 14.269916889595462
5.793764726066108 -15.820283457569133 17.347205637781986
4.2853423630770635 -18.12054290679646 15.775373149530628
1.9757519795127578 -19.667375911942063 13.756264325447763
-1.97973005206279 -19.244037537701594 13.445543719187848
-4.06548964285373 -16.390235397555173 15.045113576976352
-7.291741326154839 -12.271313881990997 18.06313052889125
-9.901488364588673 -7.48343553191164 20.15539756796823
-8.177421395156028 -4.6902724118552275 22.172313970829045
-3.2473541468077585 -4.881470160715949 22.872236611176962
-1.755001980292109 -2.414842095156215 22.92644224273579
-4.682560984388207 -2.4684907546082377 23.198652740885954
-8.317021182320348 -1.9652668960832036 23.27597002558663
-10.497739816494025 1.2305560714771522 22.28967369813376
-8.564834528780318 4.110381542552391 21.118028711930627
-5.163454999844006 9.025796244899244 20.105371368028795
-1.870611927694675 13.852173017370697 18.731790374600756
1.6425915988295228 14.289429793531045 18.46384253088651
3.769965698499166 10.749681114355495 18.968572227904875
5.969806347767468 7.482068144502314 20.01281170689393
8.0592935738301 4.3204178835672895 20.968684005639126
9.530757521380826 0.725479311233021 21.626224677433207
7.544583261650065 -2.4882656740292513 22.584576322948415
2.6759865565997067 -2.6882614221596817 22.43167876623926
1.005307712676343 -5.1414009179567115 23.444318306509278
4.134222227506946 -4.98401301346768 23.388031502217746
8.056798668686984 -5.571503869699058 22.552286206125036
9.997235975740608 -8.670415391048245 20.774786432849123
7.70460680470984 -12.048882727242821 18.83831846917632
8.648057476198314 -13.386274139156123 16.238868043178478
9.99570201119247 -11.225937491956008 17.704198941574106
11.632737257630286 -8.343046805504395 18.772075560858916
14.783187007360185 -7.2707673898696425 17.251102131672926
16.140984443413686 -9.643515260407865 13.081431486877454
18.22871355036283 -8.394457305395303 11.715977129493636
17.329176942913 -7.500253493441875 14.20164321242948
16.534263403006726 -4.931030429148604 16.465490060145296
16.679324541139543 -1.0320015322573222 16.831767048122394
18.69583126765732 2.4653211749013324 14.035329150947952
17.57099256959096 5.291150507026276 13.997034293788813
16.810373871079463 3.200049076592971 15.689404618277885
14.824259543979185 0.9463848439590581 17.732364206926956
11.747501423340491 1.6653831361554516 19.665569067029377
9.818766408549251 4.961589948302005 19.41007314480482
7.0870898943937295 10.292689852732556 18.622074755382172
3.697424383385365 14.840341890713205 16.51603397831202
4.695097756597846 17.272439364940624 13.958384528808306
8.400227134946448 17.163569640365314 12.332955301028482
12.056773416860233 16.768331306675 10.625694333830285
15.420901848777268 16.173480572701926 8.682731781989595
18.433973624214783 14.730525124199504 6.49681833095909
20.29735747679835 11.629088985133324 7.232341469094673
18.969763423394173 9.0513722246441 10.058591694867218
18.00293289443608 6.464334743143496 12.117476110428177
20.401159838834527 5.733007351639835 11.538620078997182
21.00144685936238 7.830981838214113 9.521381436184454
22.19434822249154 9.4833404056772 6.266437352086657
23.453719483394273 7.850957430410015 2.8825840494034427
23.228518867683498 3.2176154533656876 2.1600506757724798
22.334937011797404 1.9694668205536185 -0.4629622254999179
22.71082663464517 4.852217786289997 0.10081475148647508
22.348063059600996 8.265600648892597 0.6043399844677395
20.90094362821329 10.56126826161881 -2.049501709837985
19.229718683093814 8.721260334793055 -6.361480632249633
17.95903886216942 10.615148035357068 -8.535978419287087
19.086421934323035 11.27805121564502 -6.041565005250037
19.67149342242731 13.310554845428461 -2.612808081212245
18.13382212756496 16.71858600565042 -1.2633908317340032
14.708161807409112 18.55445689876611 -3.5507746944805425
12.548135978807526 20.098132303958028 -2.2162625233905446
15.062607261343878 19.258395649347637 -0.9668179690197037
17.967390247396104 18.124563347773634 1.327857626840826
18.26658776520238 17.134404760715025 4.891581298324318
14.789011459143818 17.646070877555125 6.948803038385376
9.699508452952577 18.98972585748366 9.964109447564127
4.136571086734563 20.00517583036582 12.807334417195795
1.0054029316919564 21.59655892134431 11.200024738319389
1.210797906009046 22.196706873043272 7.420945275704372
1.3813771655017206 23.173330871956573 3.436698145316312
1.3833322349277466 23.87748124723567 -0.4246958381098881
1.8542247929923619 23.736264830052335 -4.576842235150451
4.938135717073676 23.033922270518357 -6.626700438178163
8.832790508823136 21.1683367817931 -4.4912366945093325
11.474566162107816 20.589481035386047 -5.92749702206377
8.885262830435543 21.73726898185929 -7.259457900688814
5.87331883813865 22.435530908334258 -9.217757025616818
5.060649056900805 21.382878141323513 -12.568662521819988
7.975038676442821 18.30406452632467 -14.819721889132511
6.661224595384526 16.249808755348305 -16.591043038922546
5.385119896321669 18.389788777036333 -15.322865339423617
2.659626304626599 20.243770854121816 -13.682083576790859
-1.5473667830200526 19.991535258098374 -13.328316248426518
-4.057164391683488 16.23250399667524 -15.106697110962905
-6.871159169041978 15.393193223991071 -14.3527183123802
-5.367857229775829 17.777742532738912 -13.476631848947747
-3.6695317717664917 20.36516439611767 -11.561847601492854
-4.839808864157713 21.909700898546465 -8.346620369964084
-8.824006883793194 20.515055036654555 -5.9480767515622235
-8.73008792677182 20.28330561531455 -2.934923165716189
-6.773873277296806 21.6851190967704 -4.556243916177968
-4.025382793800855 23.533432855740205 -6.1410815163622265
-1.12123666314493 24.282880186687944 -4.379109135615048
-0.887823804956058 23.319019836713682 -0.7068458621211653
-1.377430147641142 22.860321365487252 3.7371647959438863
-1.4840415979871775 22.120445606225704 7.758155408620878
-1.6953296668570876 20.482682330852075 10.845032787803554
-4.4721555795337595 18.071424361686624 12.264701365028252
-7.814306452301409 16.534869532153174 10.79573376195208
-11.16318348497792 15.961430388324022 8.979214944438091
-14.34446016963378 15.591857554959542 6.8224251806704945
-17.057248218184718 15.273591631233554 4.152094147387286
-16.706980337028725 16.787990165078504 0.9841355058871473
-12.384955906385523 18.36883186256341 -1.0163250318524257
-12.459876061310416 19.019833560092827 -3.6147366326025536
-14.984655631120754 17.79116403741853 -2.7371005557531385
-18.176431273964266 15.69817444532411 -1.4264361236899077
-19.8979190733698 12.557907151794383 -3.5931095492164444
-18.667028070386685 10.897860540225617 -6.600058738667665
-17.621765798932415 9.618166503512942 -10.288471605331164
-16.5157867361746 8.204624943297784 -13.686851708246554
-14.48826708377456 6.77545228852873 -16.46035983261026
-11.482454121637312 7.847782827959278 -17.878646395897306
-8.743053850095501 11.774975118840533 -15.956473199100545
-6.423009657209807 12.864585179893487 -17.0433004044217
-7.6567966568850085 10.421634108160289 -18.276058654047258
-8.984175675934535 7.0736621579763 -18.6578994750132
-6.950914688639462 4.333754257587687 -20.18642198778259
-3.2179440803744526 4.5288750363920425 -20.875924602887913
2.6899089061218615 5.237985425573173 -21.73171823076071
8.696725250596382 5.93236999799422 -22.365402386108023
10.534856147941136 9.228253971205975 -21.07010027158735
8.741873756560457 12.880575350342156 -18.491429972809012
10.28618388637268 15.002455282524421 -17.322107350441627
11.72052125650761 12.632392776133452 -18.599160296715365
12.784854348574349 9.291566940774773 -19.313556744458882
15.068490748877915 7.529281214917303 -17.02118278097906
16.21926631212838 9.255701656530874 -12.276821708837687
17.719526540676036 7.6684622781379845 -10.53373840504462
16.9136217493011 6.497476170251618 -13.078472339436521
15.309975846495115 4.977429305445237 -15.858662116023213
15.194726595146198 1.3952715968901581 -16.33739608013133
16.61762613249554 -1.8458641571526397 -12.614076789793648
17.13090056793909 -4.490715717127989 -13.262575956969597
16.156295246516983 -2.777312804993208 -15.37421027152706
14.01778869077522 -0.7045796780421664 -17.695563203672926
11.548812020988567 -2.253638927633298 -20.325029728269936
9.773100625269649 -6.2122155875859 -20.69622760017072
7.153919321979068 -6.379484000067314 -20.782636976965644
8.277836323372128 -3.83486260694636 -21.73446046188647
10.213521662729713 -0.6210332518757915 -22.50950449768702
8.337920567400507 2.7202034665577957 -22.843380372857837
4.58870663463147 2.9580754781374634 -22.438270140858993
0.5100556520196037 2.679117595381137 -22.462447330772648
-3.346442930268509 2.577261454866922 -22.364240152913492
-7.463622274078382 2.131478055714472 -21.918538409526235
-9.47543813873524 -1.0627274688362554 -22.012080606911802
-7.703243194274707 -5.264686209429497 -21.956818099651173
-8.109534543668143 -6.833897738695831 -19.874739505220493
-10.112795105356755 -4.73212727579243 -20.295486205880085
-12.144164824419983 -2.0495941150244126 -20.938094543063546
-15.048296152048716 -1.7305009328679126 -19.204782628282974
-16.125814695793974 -5.004322984045857 -15.356274582459086
-18.483022579478916 -4.6404012834381065 -14.115312288190035
-17.886113352332174 -2.4566213452517394 -15.93845400809145
-16.577593091625566 0.5678853354811945 -17.803992528593724
-16.661774397785532 4.62483429191321 -16.377730296942516
-17.550303109987766 6.05175546407669 -13.107887809194228
-19.71048885168926 8.236698409076856 -7.986576403916926
-20.719765173110748 9.930278315037496 -2.4347439496676815
-22.183330637495402 7.614868683830234 0.12260711179225992
-23.2956256484751 3.0405427586106435 -0.8146156132034689
-22.682682628888482 1.1591294571729989 0.992605455104589
-23.101262669520167 3.874140953069776 2.107506580957122
-23.5073510923119 7.382734682781639 2.8595485221182497
-22.608867367927513 8.454180641310906 6.3417886179462
-20.744164276601285 5.739230634520551 9.802196436181971
-19.911659832972056 6.668024525248482 12.367315167727922
-20.680986426021093 8.705501023775442 10.230824960847793
-20.778123976272365 10.472306078580521 7.084529597587504
-18.281885190732957 13.08885042650636 6.214272665310614
-15.294306165338407 13.929513722636646 8.408994163567531
-10.52298025529865 15.32195316201011 12.012081328655261
-4.969031072761389 15.974162865932286 14.195139688578001
-3.7832768777418577 14.363803631562272 16.750751747948474
-6.03852822202164 11.46514247881128 18.339121259641534
-8.498899251352272 8.449069999053403 19.608511053833357
-10.607447625284824 5.3181745251528945 20.525044139709607
-12.6198397746715 1.8163516657075043 20.372085454477727
-15.982258070500833 0.85385197956931 18.419409451618513
-18.393141928764255 3.817002646626568 15.54517824487834
-19.252763542898702 3.0310779123373304 13.086626990912446
-18.866880304488003 0.9069581189164945 15.068999436914021
-17.957077386551866 -1.3011315114128033 17.53984970454133
-17.65804650088453 -5.122815825563389 16.965653910683592
-18.470728773660234 -6.572266476843296 13.268935185261212
-19.92248171834541 -7.9793921960985035 9.703084680482487
-21.03388354869866 -9.497367687520324 6.320055476070417
-21.688743065456595 -10.399703852145864 2.6326434651301764
-22.92487381446248 -8.26322636440714 -0.36438692813612783
-22.831221980180423 -3.30189666060812 0.22245754993859337
-23.431155624200876 -1.3731464914740543 -1.7785633873268691
-23.424360481889714 -4.324015701780895 -2.5823592388056134
-22.41469493458449 -7.966419279456667 -3.183909998324976
-21.12971521288835 -9.265711745399985 -6.995524257942028
-20.09022904035009 -7.285267102111738 -10.803771100223042
-17.707452457654973 -7.760075087379628 -11.96326130513034
-18.756934912219698 -9.917174408770718 -10.222951762508657
-20.25995759514742 -12.096116574416683 -8.052992063338007
-18.28418531789702 -14.950648822855575 -7.113350301085774
-14.639702555785881 -15.331714014174652 -8.75909751529655
-11.329475048191323 -16.05786179011258 -10.968890551401326
-8.008992911383812 -16.764496706286902 -12.854673439591362
-4.621583171648777 -16.792970800175794 -14.720373319645166
-3.499629327346419 -14.922694404164806 -17.90079310834809
-5.907359598703877 -10.714958237517225 -19.143708357897953
-5.354301757190498 -9.037581678962603 -21.292712855570706
-3.620792146882584 -11.591755393654655 -20.95356745036989
-1.586166955282465 -14.449984133513588 -19.95651868463798
2.04178774158967 -14.36480568373266 -19.93331348856487
4.790376993827845 -10.18962615907463 -20.28773059991082
7.572733458348125 -10.122423247462303 -20.166184070089333
6.201463461830578 -12.77574682236813 -19.556238851729074
4.067894112627065 -15.292857079733444 -18.115733185276135
5.07636178166617 -17.717830082148662 -15.181658470454929
8.262983341202673 -17.37305962044067 -13.095760464923694
13.284169207790276 -16.191690798179106 -10.047494755880544
17.286236030486485 -13.95880350352887 -6.330882686899853
19.023618310917854 -10.591913279275483 -6.813228625383877
18.497787742231406 -7.653296779321263 -10.480353768634606
17.869930865287174 -5.150938954079327 -9.91498486234463
19.27901403345255 -6.53077922610472 -7.973539724313836
20.923268223964467 -8.59573716143202 -5.524334675466756
22.427644483080446 -7.148079411465089 -2.3531342043539345
22.15328908719347 -2.3918717443271063 -0.9760207596311142
23.35109558866003 -1.283936794253568 1.267656156711816
23.345685114682144 -4.3255135373690985 0.9589962158955534
22.283639821380863 -7.765624574455117 0.41198672978434203
20.957377776734102 -10.571960040473398 3.2387043426960602
19.481018534946813 -9.68993296992767 7.720758434979195
17.851327268136348 -11.286881266364356 9.175403450680504
18.768851277572967 -12.353194551037888 6.413266464948906
19.77777062031129 -13.339940106663601 3.1185912537288814
17.727222565447256 -16.20837461413032 1.4651843397334867
13.421962146741086 -18.037498871273883 3.18889176597294
12.135895212291167 -20.38591323817693 2.2652490294958025
14.554163440928924 -19.308700814366908 0.7053890676288117
16.947148185183522 -17.1251591791633 -1.0102870685693819
16.680155062553574 -16.334533337978552 -4.729694121402675
13.69563301432991 -17.136865389297967 -7.025023336695671
10.657910057574323 -18.457443473153468 -9.41176177712306
7.754755102295758 -19.50084162747035 -11.752438093235105
4.183642970375696 -20.493643957912806 -13.702613850682235
1.225949796489564 -22.02700487795177 -11.713669967508167
0.9499506599115737 -22.444223108679463 -7.1207755306878795
-1.329016752528176 -22.066037283522856 -5.546789789048326
-1.3996680275176239 -21.467729158411032 -8.525936934358299
-0.893955111635912 -20.28845665439225 -11.453135413503624
-3.3295309266440682 -18.358613924331046 -12.772493249932838
-7.029157929545126 -17.673758811337905 -10.80064707401844
-12.260296906307252 -17.21173585170594 -7.953162771625645
-17.282442627703208 -15.6811678218455 -4.497356788476058
-17.137505517352995 -16.42070334787213 -0.9363981695619472
-13.38676980960258 -18.121701800597933 1.4709299239071536
-13.163197506160245 -18.46814147412874 4.196807623670382
-15.816847978001976 -17.34755379477562 3.0994086860955297
-18.425774515071893 -15.738661478995429 1.5639916426183116
-20.223379265593675 -12.90942853886452 2.9874693698972523
-19.156509997171543 -11.169745392803948 6.478714985134266
-17.743693103556474 -9.345679970795095 12.02818910845703
-15.453954080936638 -7.015721581030587 17.15045285817741
-12.241642998105904 -8.250739835897393 18.68081189047668
-10.042311567594835 -10.85559306839768 16.973841600524874
-8.071663474534498 -14.007295236879553 15.292772198713632
-6.039011575869866 -16.868230939244878 13.694649618837019
-3.8005305721611724 -19.171733334994794 11.26255427003562
-5.057752503953674 -20.666675309419396 8.049270499570309
-9.33639155824375 -19.908217971801218 6.058059707357377
-9.589966919209006 -19.480500699407845 3.4598287830575196
-7.161456939348588 -20.874864509745713 4.355970344838117
-4.531090771003905 -22.20157443521167 5.7017707516946965
-1.6408141087656294 -23.243651336748368 4.045154525077048
-1.4255576609164782 -22.672423671882573 -1.0948842831695507
0.7597900878570373 -22.999710512191655 -2.657384075136605
0.9150151310489782 -23.84418767582522 0.10186480483834837
0.9749103715144517 -23.77381802450985 3.7230024443325362
4.108067688577316 -23.246050245006266 6.019315033471051
8.451123307543515 -22.031348943503925 4.320362391839229
9.684175776957195 -19.735418452159955 5.062770320217489
7.67273119966093 -20.862560415949947 6.930112060620887
4.996841771757801 -22.345462913013296 8.868599246181349
4.219421941214475 -20.742845772760433 12.298715487463541
6.286765054017909 -16.64844726758065 14.391105627656895
5.708661868415362 -15.74557054893627 17.0323997494021
4.023283794176308 -17.975682988275594 15.840244639809422
1.9197251266154836 -19.69484644848414 13.767055844708548
-1.9951942139586536 -19.170681865817375 13.524268668073308
-4.098560608246693 -16.318476570195706 15.139618012559577
-7.325764223217732 -12.23301664222863 18.07159368910563
-9.903500747484857 -7.434685581555368 20.217918341760136
-8.084750616413414 -4.735877543743859 22.203564479950508
-3.2302866218544417 -4.914463067143221 23.11272211780789
-1.9046063526148345 -2.70843239540975 22.607352316457355
-4.769178950514306 -2.1904581362157542 23.055179341821134
-8.375084321443078 -2.0072937081349664 23.27165313399669
-10.29804344262734 1.2391233185393487 22.29289773101899
-8.476241692377522 4.1775960264296055 21.136383143451507
-5.129267748761607 9.091929086428806 20.090412330999797
-1.8203725952365772 13.884345803406239 18.75438474186611
1.5867126763531334 14.13432726823685 18.59906179099135
3.8728995320160107 10.669238566191696 18.958348688338535
5.977287092413226 7.391750695191642 20.05687447208951
8.054068094078065 4.269343821769362 21.006419542931567
9.599169150126285 0.6649213543970579 21.611268957720572
7.414796050252126 -2.334930059236952 22.518612467225168
2.6116909663409213 -2.6694239936541853 22.65053182207428
1.1102627127960503 -4.991072690445415 23.173301687809126
4.199636689575126 -5.25293792825314 23.210312536675605
8.167703999709481 -5.384002675855592 22.6223282254161
9.668649027502436 -8.639804232559046 20.776352425216906
7.838765562145922 -12.23215686815784 18.925398302762616
8.314257618438221 -13.091709613521237 16.340143899616073
10.104336895313494 -11.075811732146615 17.45089057578722
11.698880597474567 -8.307227357255767 18.75814341909437
14.678434713769441 -7.415200898709965 17.18251584102005
16.308519593298772 -9.805098102574352 13.147147251078241
17.795712414750994 -8.443510179016444 11.726402755389262
17.428220918372308 -7.122422448366136 14.064616998632474
16.40853241764438 -4.967718053914071 16.525792292799817
16.74029250137844 -1.008669991908032 16.753806652157685
18.86889238589047 2.5757349177791227 14.152951340863753
17.55934067175868 4.833778795525592 13.649063138266264
16.55659075419016 3.316602260725211 15.713580445839296
14.820734260094001 0.8515022062580649 17.7299922736118
11.748589905286499 1.7655860074778953 19.634869362106752
9.824280897402085 5.0477031868271425 19.396303695453444
7.055603432352265 10.316512167701559 18.620616341469958
3.6203938180091484 14.815068511128992 16.502926715535043
4.792512568822533 17.23411725640448 13.955678181597786
8.437404319197354 17.19944959076691 12.280194046661087
12.145961371684587 16.72770069276977 10.622160235758908
15.460287323753615 16.151301262514217 8.692633731438477
18.472169274529577 14.723656232540128 6.411006443505941
20.257117500902176 11.61466013816292 7.316065512175895
18.99417043445762 8.957004018821126 10.084493537105182
18.040153621474666 6.813635881215385 12.734601016544095
19.993699827348458 5.8540878623677814 11.35325856575074
21.097088214654985 7.639136283256634 9.29050274478031
22.1530461348258 9.626363368349882 6.240889032864473
23.421724916706292 7.714804497188352 3.0320400786525292
23.434514009855658 3.1955061740838646 2.049035317252081
22.165255518651442 2.0379870863405194 -0.0550235130764816
22.463763536077987 4.947047557624056 -0.06702342150025177
22.34013542477262 8.306781720934485 0.5594424091973591
20.874299638217718 10.479597274407395 -2.1138433648702604
19.404209645538955 8.747547310059943 -6.524178272108204
17.76429483182295 10.201780492139621 -8.170586678692189
18.91323426906295 11.52398307152332 -6.022192579949632
19.79631027503308 13.204708022899602 -2.4733861762634684
18.02333607604145 16.54282796168482 -1.5157704534483167
14.782752859065708 18.782586421988 -3.569560979053918
12.600873056688792 19.67256297148567 -2.3638889668894114
14.969983787204939 19.187660302908668 -0.6582578895959883
18.093747114419326 18.073959129808113 1.261070040780967
18.11273775983354 17.565626730759565 4.835850160077054
14.70673189903913 17.707545560001197 6.973307947200982
9.640127697772376 18.991877040792993 10.007635384239602
4.093616923107604 19.920238895110003 12.92284467296978
1.1678489063197364 21.588012706215075 11.100595474146731
1.1642978352813935 22.199013311149358 7.330644986939651
1.4356888350302028 23.197658999578216 3.3707449854022387
1.4194567172344563 23.89380166400228 -0.45159137616296335
1.7147164553650995 23.715284844318926 -4.670848143883849
4.957882030761583 22.99036729266002 -6.44634605258738
8.97380501073857 21.34481045926031 -4.474785944819247
11.220643274215142 20.454558260882227 -5.795395126477816
8.83022290421378 21.51366237008241 -7.48890883829265
5.7920321657759155 22.46761432919002 -9.207609161858839
5.252037302176727 21.36246043929788 -12.534627815519803
8.007213951817304 18.365600411564408 -15.055056536855654
6.865823084207441 16.307875339479192 -16.184286463383586
5.018886309899061 18.130939049173517 -15.299906946127534
2.6914061071394 20.33018624375701 -13.567666780503131
-1.596883604141496 19.902821041518607 -13.397863268971104
-4.17800966114516 16.349303818058083 -15.276952733694948
-6.45517459848045 15.271066994687626 -14.280965455417979
-5.465231984224761 17.76025781486405 -13.19048220582361
-3.600594055675378 20.391164271956594 -11.550524210150781
-4.947165839013694 21.848813010825868 -8.335459035031125
-8.947027512687166 20.725216788689124 -5.9024013085082805
-8.690602525704529 20.01610954898457 -3.315267467364803
-6.470926119436731 21.634172727995274 -4.414779556304556
-4.003659356368228 23.542189535185138 -6.218368946451975
-1.1666152012521678 24.242376540790595 -4.285436707236353
-0.9407264072355929 23.307403909484737 -0.5901115748191958
-1.1976531883606327 22.924746874076035 3.8197427349331106