-1.3534743824033146 22.193383369110915 7.765801904571875
-1.7195739474556233 20.497424673263826 10.830996049221545
-4.449693095307281 18.098944988502705 12.250711066319445
-7.777577699415106 16.53973420697024 10.83339956197013
-11.14219994146801 15.951171135874578 9.007000033203731
-14.329668642100676 15.582723886265814 6.853635431964226
-17.046600116477457 15.251850233707648 4.183579800145887
-16.78192964733018 16.778860213323824 0.9181815659178975
-12.396464851321198 18.257442525307745 -1.003638606506812
-12.503617314339706 19.139782494108058 -3.7168874063057924
-14.930069628532355 17.926162502233925 -2.553144258333337
-18.145175179158606 15.689661797886208 -1.5420066679855933
-20.044968802234568 12.501549347340548 -3.556712107061567
-18.676452815377 10.938230066654116 -6.5599568028305555
-17.640582143768903 9.616207950915172 -10.252679033257866
-16.52381346020358 8.196139794274558 -13.674318718240013
-14.499296597047657 6.761784282955891 -16.45016278293611
-11.521132843016717 7.832164444321307 -17.87725496834274
-8.702713314125273 11.68834417668662 -15.908786308332026
-6.377679879702671 12.974225945308708 -17.15551416256527
-7.787295090387047 10.489543039579543 -18.279989052789606
-8.958315028782575 7.104443679960645 -18.670638587683893
-6.998337890826875 4.3065887674716565 -20.183758321712794
-3.250165090156036 4.502976676254901 -20.86500002263622
2.6484144227871433 5.2370935819440945 -21.72585392522274
8.661797425430684 5.954309750717325 -22.35872020623386
10.623460682990359 9.239321837564262 -21.110027904611826
8.766607119928636 12.799486299913248 -18.414145098949593
10.372600484792521 15.140079827823559 -17.358858309123473
11.63830194486718 12.665277033486307 -18.725142423778987
12.80450492433847 9.322748290251885 -19.298929666469437
15.067117311127408 7.493523479065677 -17.05174545617408
16.1223688671623 9.203255573976397 -12.282785276575897
17.936415447981876 7.5989941298872 -10.533628492024883
16.939605846720305 6.63888210551869 -13.124208666080651
15.346208578605994 4.963306632293863 -15.838376628856084
15.185206510627893 1.4030270381733163 -16.380870614768135
16.508719117379677 -1.8352071835100796 -12.633861063352896
17.298575543378586 -4.594684887478465 -13.369765412566178
16.240403111452707 -2.6770000772804674 -15.307515059874783
14.038267541491914 -0.7791757854362175 -17.70787536595807
11.504481803017798 -2.1629271373867445 -20.46140641057788
9.761387987815162 -6.180552501304573 -20.57930063344857
7.025953141866836 -6.419119182981771 -20.97619729384241
8.389072599572803 -3.959927615831625 -21.7445506204246
10.139398686099407 -0.6259091889727754 -22.515493462944082
8.40226053840546 2.797320441999661 -22.827811110599082
4.62020485645443 2.9368824053697464 -22.454484586944666
0.5546308796508456 2.701487228745093 -22.449485148275585
-3.3138310864027494 2.595156660654222 -22.35317555028967
-7.423811491665013 2.0782354057559633 -21.947347333425785
-9.568190949201066 -1.045327774613299 -21.986969130385454
-7.6307318209309 -5.196523680799629 -21.889887812987816
-8.263265180143746 -6.996872647037475 -19.87059573902679
-10.048159612183795 -4.774322190603801 -20.433099521250604
-12.111807677025633 -2.056578065682278 -20.95056394838226
-15.058145169903991 -1.6874003190421423 -19.230278883928857
-16.056105250450315 -4.9228718899921455 -15.325293982267924
-18.648065702192103 -4.66734950176138 -14.123658219241
-17.820785478970777 -2.62988810791076 -16.07137814566458
-16.656364564260237 0.5867504065825384 -17.73288400241473
-16.617037101529128 4.674628518570082 -16.452862347704823
-17.515281450623306 6.046861787721877 -13.151952351401984
-19.71034863733208 8.222262692159497 -8.00714652249936
-20.701394378173575 9.936318269985147 -2.4592076244390766
-22.175738074490287 7.6604442997293605 0.16076318660890057
-23.172732783033304 3.056884795776815 -0.8357149121924545
-22.833808899588387 1.0604327107153975 1.1366191480191092
-23.181684576253716 3.8478270124608662 1.960328533497851
-23.506303924558253 7.346742487867823 2.8754856467499716
-22.640976259487168 8.548913932215477 6.358094240366736
-20.656962770733887 5.767757605251936 9.731360040155899
-19.97498696535455 6.709403354604478 12.514819719407848
-20.803220945140904 8.620846184009238 10.212510330739718
-20.77101791622479 10.484816702980924 7.1216455089599355
-18.303024010662387 13.08209433694783 6.1706496304928296
-15.307489600256071 13.921694404132571 8.363633378991924
-10.56254635152453 15.30804200083836 12.020290249574215
-4.984550205763386 15.981321877414464 14.163923379372537
-3.747863975043053 14.373671285913796 16.745668586447277
-6.0411425970551935 11.503689568908426 18.317746248919427
-8.457151911875894 8.468034761424072 19.605677591421642
-10.586764379183645 5.316730401722203 20.524865876607606
-12.634972525679679 1.8537411379555946 20.368803730448313
-15.974250254702753 0.7988715771745827 18.43943122793426
-18.276724892404705 3.8093000621729924 15.505809421207163
-19.472761716339413 2.9700736460101864 13.030970001316211
-18.901586058212295 1.0462553456516999 15.146077962954708
-17.952318693063624 -1.2611851780483427 17.529467058802066
-17.63162555366496 -5.118725604578148 17.011477236443817
-18.475350325269208 -6.539008219939626 13.307174247362598
-19.891883733725006 -7.984240081428507 9.741466501979989
-21.011450281540256 -9.506272383471245 6.335616302046122
-21.672179526640925 -10.403117807384088 2.649326567942456
-22.93436856978341 -8.300918312165923 -0.3929827604308819
-22.72262340188437 -3.3315380501987537 0.19505644793884547
-23.573163141984047 -1.303922216055403 -1.8371294883654767
-23.506699433915365 -4.344293585734236 -2.4491096262972114
-22.422041302651678 -7.909924008078424 -3.235985018012345
-21.14218792795387 -9.429981039079314 -7.018536348667998
-20.022310703842624 -7.234718628335029 -10.714078682130214
-17.646058622667272 -7.904965276365542 -12.130116751303564
-18.874281483027186 -9.824468703512242 -10.303120866782834
-20.270721818492582 -12.057756449080047 -8.055197044863139
-18.318783334785262 -14.964646494110445 -7.073142835263651
-14.69346716489366 -15.315442700117858 -8.752076263979664
-11.352133554182323 -16.06183030398076 -10.927958719824112
-8.023205390697967 -16.765362780269953 -12.824434268316855
-4.635814201467338 -16.796134305958034 -14.682580904422377
-3.469232354553847 -14.952602708914739 -17.907990893538035
-5.828724739851988 -10.682419569129635 -19.06981597445326
-5.396299616740885 -9.035044265577302 -21.441571952303356
-3.763415810007282 -11.648740978807009 -20.944015275272644
-1.5849397839933546 -14.421798184871692 -19.985367062435554
2.042672278329814 -14.414592331948157 -19.928884194952015
4.7596922692004835 -10.197508860615235 -20.174037527816104
7.697990202191917 -10.146814075510715 -20.267289063656435
6.123561401059094 -12.742301876750046 -19.67932030493753
4.106936841877687 -15.286177945186994 -18.12608821104627
5.028207973423359 -17.73658023459436 -15.186418944880794
8.221864606640436 -17.38584123475393 -13.090798325721243
13.266274343055718 -16.192389830819245 -10.06538259839019
17.249511105382282 -13.981740571261165 -6.335015336361442
19.067499765179324 -10.55384463620225 -6.732584510360094
18.400093081078218 -7.690260473038506 -10.42851397319455
18.077014519831078 -4.94246800424984 -9.892961476716247
19.272118728451765 -6.602745077476246 -8.121664973471573
20.922016435157573 -8.554274063499383 -5.540283340716793
22.448078155838765 -7.199826440951279 -2.3499027724798967
22.059266812993993 -2.4302040938974665 -0.9314245677754773
23.495248959391503 -1.232952880205443 1.3147325306269197
23.39426232331651 -4.2976269748392895 0.819800874505122
22.30651396062926 -7.738180115804562 0.43718311567360646
20.954647775577943 -10.664542248738663 3.1966733770331683
19.40457461912843 -9.65025962788766 7.648681550747255
17.853996977174432 -11.413987959762894 9.28279867022702
18.895194855914 -12.30264262604618 6.502086880151081
19.755945810241766 -13.346224467456004 3.1513125291275683
17.770754904742507 -16.21477150522696 1.433513500911857
13.389714680841488 -17.960364471501407 3.1111572313610476
12.158927395104008 -20.544103048112927 2.2879394667185324
14.618060950145859 -19.303679103977075 0.8431229894001667
16.92530935314138 -17.161616015621025 -1.0157917797342153
16.760722271744967 -16.277743221223687 -4.765537280293923
13.728533648845511 -17.14678780971653 -6.980047322626896
10.69392379264497 -18.428838726078737 -9.397939712428487
7.778438772689073 -19.471042945416926 -11.748532009346278
4.202696445130868 -20.529019926594128 -13.638676225133755
1.0924130904930198 -22.084820705809225 -11.771114149118992
0.9763708405997189 -22.334201223881657 -7.142024252398006
-1.4623962931340095 -22.14284466983653 -5.506541132869729
-1.34848898828122 -21.60308587257666 -8.542874516924488
-0.8246826098627464 -20.3014629045105 -11.4299235464714
-3.290636815999249 -18.427629773247812 -12.73474882390449
-6.985695957684106 -17.66100116789793 -10.848839215835634
-12.23660346938012 -17.219111830918468 -7.960033173061209
-17.22860377903479 -15.74870571946064 -4.46114218752277
-17.225608754055962 -16.41439840271485 -0.8929307152588404
-13.372338917229753 -18.009340979399322 1.4627427234097372
-13.199572323604047 -18.573383181496652 4.305205615962429
-15.802048074184652 -17.473932834988368 3.014354607302861
-18.405866251607044 -15.749333886298416 1.5490854732527803
-20.228841048743355 -12.947396912162388 2.957701232316261
-19.183653550116343 -11.16206678136919 6.415503056583814
-17.74733488436746 -9.358502345921687 12.004283986965712
-15.455859771364539 -7.056688929788197 17.13979957838102
-12.215585719261405 -8.227174060571336 18.76985990911259
-10.089187876970493 -10.830083599117737 16.981928806920862
-8.077207596277074 -13.970603456044781 15.325212274903482
-6.029098045876011 -16.850523152674917 13.712890752273188
-3.8436028980057544 -19.161134529499638 11.276517767566721
-5.007610182747977 -20.68430794589998 8.048605159173793
-9.283794017062617 -19.80261988714573 6.067018511861747
-9.638937383446319 -19.640906787279597 3.316350221690319
-7.277160247679774 -20.902440879405727 4.450990227591788
-4.5481072112307785 -22.153557782652417 5.758430094971822
-1.7202905617283921 -23.225680782486695 4.073670949722787
-1.3819934465004513 -22.565543941847938 -1.0595690207800217
0.8400523448679037 -23.187120411235146 -2.751861612233095
0.7684961535418084 -23.868844161794726 0.07672452580679456
0.9928818173416777 -23.787864921709907 3.6924713337552415
4.053952991704508 -23.234583377656893 6.05588586020193
8.369002476077036 -21.95886886670638 4.2597986857373344
9.84384529781489 -19.72119474364957 5.223525994330707
7.737030601373224 -20.97978756415678 6.840253439607196
5.028991405588088 -22.323510081002908 8.863787756039754
4.190237829891444 -20.783713577485617 12.30307911575466
6.197387056234543 -16.608179543589827 14.330511258626181
5.751213297240735 -15.782927003252697 17.189802693592043
4.154313078626686 -18.048112947536026 15.807808894670025
1.9477385530641207 -19.681111180213097 13.761660085078157
-1.9874621330107218 -19.207359701759486 13.484906193630575
-4.082025125550212 -16.354355983875433 15.092365794767966
-7.308752774686285 -12.252165262109813 18.06736210899844
-9.902494556036762 -7.459060556733503 20.186657954864188
-8.13108600578472 -4.713074977799544 22.187939225389776
-3.2388203843311 -4.897966613929585 22.992479364492436
-1.8298041664534719 -2.561637245282982 22.766897279596574
-4.725869967451256 -2.329474445411996 23.126916041353542
-8.346052751881711 -1.9862803021090853 23.273811579791655
-10.397891629560682 1.2348396950082507 22.291285714576375
-8.52053811057892 4.143988784490998 21.12720592769107
-5.1463613743028045 9.058862665664023 20.0978918495143
-1.8454922614656262 13.868259410388472 18.743087558233434
1.614652137591328 14.211878530883954 18.53145216093893
3.821432615257588 10.7094598402736 18.96346045812171
5.973546720090347 7.436909419846979 20.034843089491723
8.056680833954083 4.294880852668325 20.98755177428535
9.564963335753555 0.6952003328150395 21.618746817576895
7.479689655951096 -2.411597866633102 22.55159439508679
2.643838761470314 -2.6788427079069344 22.541105294156772
1.0577852127361966 -5.066236804201064 23.3088099971592
4.166929458541036 -5.118475470860411 23.299172019446676
8.112251334198232 -5.477753272777324 22.587307215770576
9.832942501621522 -8.655109811803644 20.775569429033016
7.771686183427881 -12.140519797700332 18.88185838596947
8.481157547318267 -13.238991876338678 16.289505971397276
10.050019453252983 -11.150874612051311 17.577544758680663
11.665808927552426 -8.325137081380081 18.765109489976645
14.730810860564812 -7.3429841442898045 17.21680898634649
16.224752018356227 -9.724306681491104 13.114289368977849
18.01221298255691 -8.418983742205873 11.72118994244145
17.378698930642653 -7.311337970904006 14.133130105530977
16.47139791032555 -4.949374241531339 16.49564117647256
16.709808521259 -1.0203357620826772 16.79278685014004
18.782361826773894 2.520528046340227 14.094140245905855
17.56516662067482 5.062464651275933 13.823048716027538
16.683482312634812 3.25832566865909 15.701492532058591
14.822496902036592 0.8989435251085613 17.73117824026938
11.748045664313496 1.7154845718166734 19.650219214568068
9.821523652975667 5.004646567564573 19.403188420129133
7.0713466633729976 10.304601010217052 18.62134554842607
3.6589091006972567 14.827705200921098 16.509480346923535
4.74380516271019 17.25327831067255 13.957031355203048
8.4188157270719 17.18150961556611 12.306574673844784
12.10136739427241 16.748015999722387 10.623927284794597
15.440594586265439 16.16239091760807 8.687682756714036
18.453071449372178 14.727090678369818 6.453912387232513
20.277237488850268 11.621874561648127 7.274203490635283
18.981966928925893 9.004188121732618 10.0715426159862
18.021543257955372 6.638985312179439 12.426038563486134
20.197429833091494 5.793547607003807 11.445939322373961
21.04926753700869 7.735059060735373 9.405942090482382
22.17369717865867 9.554851887013546 6.253663192475563
23.437722200050285 7.782880963799183 2.957312064027987
23.33151643876958 3.206560813724775 2.104542996512282
22.250096265224425 2.0037269534470696 -0.2589928692881998
22.587295085361575 4.899632671957026 0.01689566499311164
22.344099242186804 8.286191184913545 0.5818911968325491
20.887621633215502 10.520432768013107 -2.081672537354122
19.316964164316385 8.734403822426502 -6.442829452178917
17.861666846996187 10.408464263748344 -8.35328254898964
18.999828101692998 11.401017143584173 -6.031878792599835
19.733901848730195 13.257631434164031 -2.5430971287378554
18.078579101803207 16.630706983667626 -1.38958064259116
14.74545733323741 18.66852166037705 -3.5601678367672327
12.574504517748158 19.885347637721853 -2.2900757451399776
15.016295524274408 19.223027976128154 -0.8125379293078462
18.030568680907717 18.09926123879087 1.2944638338108965
18.18966276251796 17.350015745737302 4.8637157292006865
14.747871679091475 17.67680821877816 6.961055492793176
9.669818075362482 18.99080144913832 9.985872415901866
4.115094004921083 19.962707362737905 12.865089545082789
1.0866259190058463 21.59228581377969 11.150310106233059
1.1875478706452198 22.197860092096313 7.37579513132201
1.4085330002659617 23.18549493576739 3.4037215653592767
1.4013944760811015 23.885641455618966 -0.438143607136426
1.7844706241787307 23.72577483718563 -4.623845189517152
4.94800887391763 23.012144781589186 -6.5365232453827735
8.903297759780852 21.256573620526705 -4.483011319664291
11.34760471816148 20.52201964813414 -5.861446074270795
8.857742867324662 21.625465675970847 -7.374183369490734
5.832675501957283 22.451572618762135 -9.212683093737827
5.156343179538766 21.372669290310697 -12.551645168669896
7.991126314130063 18.334832468944533 -14.93738921299408
6.763523839795984 16.278842047413754 -16.387664751153064
5.202003103110365 18.260363913104932 -15.311386142775575
2.6755162058829995 20.286978548939405 -13.624875178646993
-1.5721251935807743 19.947178149808487 -13.36308975869881
-4.117587026414324 16.290903907366655 -15.191824922328927
-6.663166883761214 15.332130109339351 -14.31684188389909
-5.416544607000295 17.769000173801484 -13.333557027385678
-3.635062913720935 20.378164334037127 -11.556185905821815
-4.893487351585703 21.879256954686163 -8.341039702497605
-8.885517198240182 20.620135912671834 -5.925239030035253
-8.710345226238173 20.149707582149567 -3.1250953165404955
-6.622399698366769 21.659645912382835 -4.485511736241262
-4.0145210750845415 23.537811195462663 -6.179725231407104
-1.1439259321985489 24.26262836373926 -4.332272921425701
-0.9142751060958254 23.31321187309921 -0.6484787184701805
-1.2875416680008873 22.892534119781637 3.7784537654384964