-22.16042347967573 -23.526096842183534 7.7625638432015185
26.39490531719928 18.56211425156647 -7.82664775054848
22.890157048177542 21.456024979827344 -11.707933609244133
29.37246752643841 15.434081871131694 -3.695301044026744
32.57021994219928 12.869377626566468 0.652408811951517
36.175610838032604 10.458026522399793 5.108428353618183
39.521002317199276 8.016876314066462 9.738050374451518
43.0768732438297 5.575268697218638 13.882091890755866
46.40170862969927 3.1978240640664612 18.200417561951518
49.69976635252535 1.0061316320012437 22.50202882553848
49.32695657612785 -0.7961792127192544 25.877547642308663
47.588590692199276 -0.26422399843353617 23.823633499451514
45.39648907136595 1.1242316348997927 20.32036639945152
42.792452129699285 3.1837658140664633 16.841519999451517
40.77903462969927 4.243348439066464 14.740947436951519
38.40041837136595 5.854698568233132 11.339408899451517
35.94319331719928 7.856593064066457 8.218292436951515
33.93507181719929 9.106741314066463 6.204963686951517
31.41821750469927 11.09590225156646 2.8232363744515157
28.925938147556426 13.308881715852177 -0.12980485769134426
27.00007512969927 14.515482189066464 -1.927876500548484
24.42528781719928 16.33932772031647 -5.352150406798481
21.775763379699264 15.670089314066455 -5.864787750548482
23.39542587969929 14.287861814066463 -3.6020125630484845
25.780879604699273 12.174242634899796 -0.46885693388181643
29.20586219219927 9.682768064066462 3.7903955932015174
32.735878160949284 7.218032564066464 8.291250718201518
35.20036437969927 5.58190925156646 11.895194499451518
37.102153004699275 4.555378072995034 13.845306785165794
39.59223897344928 2.3610116265664605 16.818155593201514
43.18332619219928 -0.26232365468353613 21.05420034320152
46.35438750469927 -2.666711898433538 25.36562859945152
46.449683204699284 -4.736950998433537 29.5990602994515
45.03551621898499 -3.870187355576387 28.110138499451512
43.244966192199286 -2.8790255609335382 26.15009749945152
40.85982169219927 -1.154913779683536 22.58046893695152
38.354134942199266 0.5965915015664578 19.06383287445152
36.400872817199286 1.5159385640664595 16.819718936951524
34.12856693327071 3.062340894423606 13.547460642308655
31.516787567199266 5.305078251566465 10.42946424945152
29.466590504699276 6.732323251566468 8.550675624451515
26.90863541094928 8.892384032816462 5.276929968201517
24.441251004699275 10.976711001566459 2.1768652851658032
22.52310844219928 12.126165189066466 0.3016879369515184
19.858179879699264 14.065289782816464 -3.01380921929848
17.147177942199278 13.350679064066469 -3.5088568130484834
18.85562175469928 11.842963126566463 -1.3842346255484852
21.314918171365935 9.645797201566461 1.6595288661181855
24.66831581719928 7.297277314066464 6.085441405701519
28.20499456719928 4.635221001566464 10.481269061951517
30.729753442199282 2.755565001566456 13.938556561951525
32.6555789332707 1.680836358709316 15.854878499451518
35.14628934844928 -0.498948529683541 18.85112521820152
38.67436175469928 -2.808691279683538 23.357878186951524
41.898120438032606 -5.414647765100204 27.492519132784857
40.51982629041356 -7.010284212719254 29.97436064230867
38.77187756719928 -6.17695793593354 27.90107324945152
37.21254719219928 -5.209001123433534 25.43313112445151
35.74037375469928 -3.915287560933537 23.02288262445152
33.906438504699274 -2.576491623433542 20.88266524945151
31.897607692199273 -1.516914248433535 18.742492374451516
29.535277538032616 0.22148506823312838 15.355191999451522
27.029525442199272 2.3671060015664604 12.33093949945152
24.97893012969928 3.681591939066461 10.368781936951518
23.22020875469928 4.960258626566466 8.11720568695152
21.655762754699275 6.490250939066465 5.88186468695152
19.927560504699272 7.955587215852178 4.02698249945152
17.993264817199275 9.118654501566459 2.1748634369515187
15.389485410949284 10.971215251566463 -1.245559938048478
12.689061754699281 10.13143418906646 -1.8304436880484811
14.36320381719927 8.679635876566461 0.367077061951516
16.810760404699277 6.516553234899795 3.4434020327848507
20.039087371365948 4.188627468233131 7.71635123278485
23.711062973449284 1.451026439066463 12.25139631195152
26.192911254699283 -0.3855434359335401 15.765527186951513
28.10078450469926 -1.4132207127192515 17.731148570880098
30.596131910949296 -3.646613623433537 20.709556593201523
34.154791473449286 -6.102718435933533 25.12884662445152
37.40830707136596 -8.826540498433538 29.151957932784857
35.845363004699294 -10.48927024843354 31.45768883278485
34.22782375469928 -9.700021748433537 29.529131436951523
31.919535723449275 -7.9405167171835345 25.93572062445152
29.36243819219927 -5.908793935933538 22.609733061951516
27.373472004699273 -4.851843060933536 20.43808518695152
25.035549804699276 -3.0620471984335365 17.053105499451522
22.530196692199276 -0.895183060933535 14.04111749945152
20.467991442199263 0.40517500156646236 12.060840499451517
17.915903285949277 2.4785827203164628 8.711535561951518
15.39730421898499 4.677851072995038 5.718871928022947
13.468815692199282 5.802354939066463 3.8256684994515204
10.883303754699273 7.640485845316461 0.3700889057015182
8.150973290413555 6.788683787280744 -0.4705637148341952
9.909498629699275 5.237615001566459 1.8790294369515212
12.35921793803261 3.0829492015664632 4.967842666118184
14.696241629699276 1.2410732515664602 8.322927811951516
17.191409129699267 -0.06410799843354198 11.057036624451527
19.25304328594928 -1.9867974046835393 13.80068603070152
21.71363075469928 -3.906278373433537 17.30665806195152
23.61048329041356 -4.9190797841478195 19.309124785165803
26.11477487969929 -7.132257373433536 22.306969374451526
28.610502254699277 -9.134370060933536 25.709980374451522
30.62360381719928 -10.213387685933538 27.815751249451512
33.09663783803262 -12.517608131766876 30.58811856611818
31.66207679041357 -14.32985942700496 32.64057057088009
29.664667754699288 -13.652542935933534 30.774874624451524
27.40337328594928 -11.737591154683537 27.249169780701518
24.938601567199264 -9.605947560933538 23.922782124451516
23.00089787969928 -8.562356123433535 21.701154999451514
20.682118604699273 -6.7298779317668735 18.328741866118193
18.132618817199273 -4.529915748433535 15.374160874451519
16.043465817199273 -3.244108748433538 13.412305749451509
13.49255097344928 -1.1354674046835358 10.090376124451515
10.949983004699273 1.084159501566461 7.126063928022946
9.040369567199273 2.2014778140664646 5.215477186951517
6.481288067199275 4.060813407816461 1.7520944369515146
3.890195192199272 3.0008035640664588 0.9494411869515211
5.578902004699277 1.5325265015664655 3.127895999451516
8.043783238032606 -0.6560158984335402 6.1793812661181855
10.358123254699269 -2.5700381234335374 9.501488561951518
12.310164817199277 -3.642929998433532 11.70998231195152
14.922175660949286 -5.858616467183538 14.92096859320151
17.40132850469928 -7.840633748433536 18.376630499451515
19.3260434332707 -8.896659498433538 20.33292792802295
21.90544559844928 -11.218763998433541 23.172781343201514
24.403052754699267 -13.351763310933535 26.478957124451515
26.358955129699275 -14.463062623433533 28.617342561951517
28.94879067136594 -16.76696223176687 31.294383132784855
27.659739647556414 -18.948514998433527 33.1773659994515
25.820821817199274 -18.15155843593353 31.177021374451517
23.422207848449283 -16.14484609218354 27.772141561951525
20.91372871898499 -13.935276427004966 24.794955713737238
18.80386681719927 -12.712361310933534 22.54193993695152
16.45915110469928 -10.77540823176687 19.245844532784858
13.891793567199272 -8.522273748433538 16.345703936951523
12.33052462969928 -7.508328248433543 14.900794874451513
9.22449575469927 -5.086489717183535 11.118254749451516
6.650870147556418 -2.833596212719255 8.210856570880095
4.72652262969927 -1.702895873433535 6.31409149945152
2.1507341296992735 0.1969252203164622 2.8837454994515204
-0.4172872453007219 -0.8876084359335437 2.0298152494515165
1.277586379699276 -2.3803686859335382 4.188283686951518
3.774407938032608 -4.606075465100206 7.18812379945152
6.11666481719927 -6.547464435933534 10.48597143695152
8.073692129699278 -7.642792060933539 12.684460374451515
10.797648538032607 -9.984886765100203 16.006517866118184
13.170726942199277 -11.903606060933537 19.310571874451515
15.092362790413558 -12.987609855576398 21.24345671373723
17.73441044219928 -15.363907467183537 23.977685999451516
20.340189317199275 -17.597792873433534 27.140906749451517
22.361865317199268 -18.803335560933526 29.166832186951517
24.922310571365944 -21.183660965100195 31.762449032784843
24.89932250469927 -24.414450248433536 35.13494787445152
23.64206900469927 -23.40763392700496 33.67301742802295
21.836579504699273 -22.484649498433534 31.711745561951517
19.39900444219928 -20.40197115468353 28.38682693695151
16.70023819219927 -18.061936060933526 25.379041686951517
14.678270942199276 -16.861861310933534 23.31150806195152
12.285730771365944 -14.853490398433541 20.09720269945152
9.679628817199273 -12.572519060933535 17.259478249451515
7.576730692199273 -11.265920123433533 15.334967936951518
4.9948132546992765 -9.090063154683534 12.081146530701517
2.415436076127849 -6.824105784147816 9.194734642308664
0.6054431475564185 -5.761589069862113 7.448459428022945
-2.1141992765507283 -3.753037185933537 3.9269775932015154
-4.67123755780073 -4.848030498433539 3.044960874451519
-2.965556807800727 -6.365962623433537 5.173286749451517
-0.46341882863406075 -8.612212065100206 8.155131266118184
1.8958925046992743 -10.568795873433537 11.430441249451514
3.8657025671992766 -11.680790373433535 13.609338311951529
6.510895410949275 -13.94972427968354 16.758658218201518
9.027318379699274 -16.017992810933535 20.134466061951525
10.972093647556418 -17.129039427004958 22.030575570880085
13.64104466094928 -19.54280021718354 24.696800280701517
16.295239942199274 -21.838320935933524 27.774600249451517
18.392417067199275 -23.106168748433532 29.684003999451527
21.17295013803261 -25.620448498433525 31.924365299451512
25.17541587969926 -28.73888574843353 34.055806249451514
20.434550629699274 -28.07461562343353 33.96827637445152
17.963571067199275 -26.909281123433523 31.990915749451524
15.351156817199278 -24.684467717183534 28.91698249945152
12.579484442199274 -22.195058623433532 26.126076124451515
10.495833317199269 -20.95539143593353 24.164440811951522
8.08361187136594 -18.93919873176687 20.977403499451512
5.516241442199277 -16.66327431093353 18.104826624451526
3.4257347546992722 -15.354212373433533 16.17272999945152
0.8090343484492726 -13.151868123433538 12.96474174945152
-1.8177989953007179 -10.822911284147821 10.1772717851658
-3.7788843703007267 -9.654645623433538 8.347389186951517
-6.337033807800726 -7.733727092183535 4.922611155701517
-8.868244807800723 -8.860056810933537 3.9910389369515187
-7.208018245300726 -10.33400306093354 6.186964124451519
-4.728408195300731 -12.542734598433537 9.20940353278485
-1.3912075619673905 -15.136525398433538 13.234530666118188
2.3291227859492745 -17.959495248433534 17.67770909320152
4.792733442199273 -19.97406006093353 21.121495624451516
6.741507504699276 -21.13138249843353 22.979486928022936
9.464365442199272 -23.652819560933523 25.485875905701526
13.349748692199277 -26.795410185933523 29.152241874451516
16.938809838032604 -29.82831153176686 32.723362432784846
15.526134754699271 -31.82922033176685 34.70073116611818
13.642617692199277 -30.82701537343353 33.120681249451515
11.011084442199277 -28.54020643593353 30.08466153070151
8.366578317199275 -26.17880743593353 27.055499561951518
6.355813754699273 -24.980031310933533 24.98382062445152
3.906590238032609 -22.919950865100194 21.852026766118183
1.253927379699272 -20.514851998433528 19.17952249945152
-0.905248057800728 -19.061024373433533 17.43542412445152
-3.5874498078007298 -16.714973748433536 14.382041249451515
-6.142817423872158 -14.465893141290683 11.456697356594379
-8.069632370300724 -13.320777998433535 9.581636561951521
-10.651182095300728 -11.38633743176687 6.457731599451518
-13.280485870300723 -12.37016356093354 5.438445936951524
-11.521555182800725 -13.92164793593354 7.48595856195152
-8.963645795300726 -16.1888046651002 10.390657866118184
-5.588692057800726 -18.790251154683535 14.665400718201516
-1.9474124640507258 -21.717084123433533 18.80345246820152
0.6473541296992718 -23.938910373433536 22.008687311951512
2.6392769332707036 -25.150662212719244 23.7839352851658
5.35134775469927 -27.630529529683525 26.338508561951528
9.086366129699275 -30.65528340468353 30.25910496820152
12.771186683270704 -33.62424024843353 33.47893135659437
11.652795076127846 -35.87425214129066 35.29332471373723
9.640212442199276 -34.93875687343352 33.57137974945152
7.918769754699273 -33.59897818593353 31.43854593695152
6.3060490671992735 -31.894355310933534 29.436372499451522
4.351177817199273 -30.272959810933536 27.657663749451515
2.261480192199274 -28.979674123433526 25.739365374451523
-0.22246066196739206 -26.823637198433524 22.71022803278485
-2.883544432800724 -24.42497962343353 20.054237186951525
-5.000611120300727 -23.049090998433535 18.21012524945152
-6.802311807800724 -21.628511998433535 16.083255749451524
-8.43716380780073 -19.93441362343353 14.027781311951518
-10.23207020958644 -18.417340427004955 12.285905785165804
-12.187422307800727 -17.243151435933534 10.467345874451519
-14.833211870300723 -15.261952685933537 7.154146218201515
-17.27713612030073 -16.332498373433538 6.195647499451519
-15.545505182800724 -17.84746824843353 8.286705124451519
-12.999615295300732 -20.126730298433536 11.172468699451516
-9.613105620300725 -22.78593546718352 15.377040061951513
-5.961215589050725 -25.70356009218353 19.49431856195152
-3.3863469953007233 -27.90936818593353 22.710536686951514
-1.282340328634059 -29.192193998433538 24.61478799945152
1.2855301609492722 -31.65059818593352 26.966174968201514
5.093579723449272 -34.72189431093353 30.70247871820151
8.624775942199271 -38.14143215468353 34.033197155701515
7.366522921365946 -40.45091574843352 35.55708049945152
5.722139004699274 -39.300858685933534 33.83699543695151
3.2418795359492725 -36.89700581093352 30.814378530701518
0.439977317199272 -34.39582931093353 28.11053962445152
-1.6406014328007288 -33.05259681093354 26.228286686951513
-4.123954028634061 -30.811952198433534 23.26925159945152
-6.809020120300726 -28.40529668593353 20.649913249451515
-8.925901307800727 -27.042096435933523 18.806846186951525
-11.548183026550724 -24.766984467183523 15.679186218201517
-14.174404781015014 -22.456897712719247 12.90173892802295
-16.096631932800726 -21.292945435933536 11.047333749451516
-18.689557370300733 -19.310066998433527 7.711003186951519
-20.929895307800734 -20.476066373433532 6.525581374451519
-19.210138745300732 -21.955501373433528 8.637990999451516
-16.69989999530073 -24.166361498433528 11.581932766118182
-14.395630245300724 -26.242065060933527 14.773915936951514
-12.444281682800726 -27.413505998433532 16.895748811951513
-9.721867839050724 -29.77423334218353 19.845683186951522
-7.039012066729295 -32.109920784147825 23.147753713737224
-5.2080255667293 -33.232766498433534 24.818101713737235
-2.5092648078007267 -35.749387123433515 27.27330078070151
0.21279681719927268 -38.22754293593351 30.066350311951524
2.3741235671992733 -39.60546037343354 31.751866624451523
5.264993371365942 -42.19090029843354 33.426897166118195
4.566373933270703 -44.78628571271924 34.46089549945152
0.6460566296992726 -41.8288832901002 31.432952457784854
-3.2205341203007247 -38.497849748433524 28.169757936951516
-6.78123110399638 -35.588828346259625 24.38595328206021
-10.334233682800724 -32.57481406093353 20.66662781195152
-14.17443612030072 -29.696537227600206 16.735398416118176
-17.726512709586444 -26.626505284147818 12.975562570880085
-27.641508473561604 -18.60340456365092 0.1414219124949971
-31.07404024530074 -15.652266373433541 -3.7698523130484816
-33.180519661967395 -14.230471720655759 -5.886237944992922
-34.88025699530074 -12.849924623433534 -7.808735750548486
-36.529449217522966 -11.338327831766868 -9.667513056104038
-38.438647995300734 -9.793123784147818 -11.552201357691336
-42.00512255780074 -7.116597498433539 -15.517975854715147
-45.70148280780074 -4.195521623433541 -19.422770000548486
-49.37865275617032 -1.321242454955276 -22.859350544026746
-52.92914112030073 3.8595251265664636 -26.47590900054848
-49.99169830780074 2.340221314066465 -23.990677313048483
-47.947150566729306 1.1697293587093185 -22.58427657197705
-45.20464468280073 -1.341842560933534 -20.306834750548475
-42.427510870300736 -3.7030554984335353 -17.489250375548473
-40.31380730780074 -4.946722623433535 -15.607326750548475
-37.602391961967406 -7.2421363651002055 -12.932210933881814
-35.183497245300735 -9.319855185933537 -9.831846750548483
-33.28741405780073 -10.454415310933534 -7.651470063048482
-30.621924745300728 -12.767081342183536 -4.609753063048484
-28.12510768280073 -14.911365185933533 -1.3202488130484813
-26.28257085244359 -15.943159855576395 0.6726589280229466
-23.61004743280073 -18.085187904683533 3.5373132182015157
-21.114836307800736 -17.17193362343353 4.330229186951518
-22.81031487030073 -15.677550123433535 2.197775624451518
-25.2047200619674 -13.578061665100206 -0.9401320672151475
-27.832231682800735 -11.292086935933538 -3.721590375548484
-29.90146674530073 -9.991019060933535 -5.660761875548484
-32.51384399530074 -7.750183654683538 -8.83144321929848
-35.1621505667293 -5.449069641290685 -11.603176286262766
-36.979330138157884 -4.38032256986211 -13.319317714834193
-39.66151177655074 -2.1543256859335385 -16.688236625548484
-42.420632182800745 0.22784731406646408 -19.537856938048485
-44.52545655780073 1.4562892515664583 -21.397681938048482
-46.87066216196741 3.4145408015664667 -24.48006970054848
-46.18293037030074 6.153371126566462 -25.076066188048486
-44.078263495300746 5.216728001566461 -23.527163643405622
-41.463058401550725 2.8211305640664577 -20.94703800054848
-37.74561740155073 -0.16302199843354348 -17.022067219298485
-34.03840039530073 -3.1421715984335408 -13.362839633881814
-31.61097193280073 -5.169746685933543 -10.217162750548479
-29.685241682800743 -6.283487685933535 -8.026010188048486
-27.032611964050734 -8.570923967183537 -4.927756250548483
-23.628612561967408 -11.18278846510021 -0.7152539672151487
-19.945557776550736 -13.906824060933541 3.1956840619515194
-17.283954995300732 -13.13522362343354 3.759834936951517
-18.990715995300732 -11.655563373433543 1.6139368119515236
-20.61784813815788 -10.405924927004962 -0.48194492911991105
-22.094543307800734 -8.86591843593354 -2.476173313048484
-24.01752218280074 -7.248066185933533 -4.322872125548486
-26.09125562030073 -5.925787685933534 -6.256328250548481
-28.674659995300722 -3.7257170921835394 -9.489392531798481
-31.289123066729303 -1.4299713555763947 -12.318211643405624
-33.236139057800735 -0.2821676859335369 -14.17309550054848
-34.963423682800745 0.9851130640664625 -16.43740412554848
-36.52697968280075 2.5449723140664613 -18.64274525054848
-38.42564105780074 4.091090501566464 -20.548823875548475
-40.48195993280075 5.32642756406646 -22.495517750548487
-42.806312161967405 7.162639234899795 -25.690194667215142
-41.88656987030073 9.845981251566462 -26.60179662554848
-39.85669313815788 8.82929171585218 -24.94761957197705
-37.289188495300735 6.512104751566461 -22.199063469298487
-33.679259557800734 3.718201532816466 -18.01285056304848
-30.039628228634065 0.7574054348997937 -14.243009533881816
-27.58594118280073 -1.3236142484335378 -11.135325938048481
-25.594648120300732 -2.4775812484335376 -9.01088525054848
-22.97870355780073 -4.690536154683536 -5.816553875548483
-19.689095695300733 -7.168219898433536 -1.4051143005484819
-16.00185008905073 -9.884892623433537 2.524367686951517
-13.262253932800723 -9.119290685933539 2.996967874451519
-14.98832555780073 -7.600205498433537 0.893743874451518
-17.423792228634056 -5.5643119317668726 -2.278488600548481
-19.873423932800726 -3.3927407484335372 -5.334383625548481
-21.892421057800732 -2.138282873433541 -7.373958438048479
-24.474200901550734 0.013299595316460966 -10.640863750548483
-27.092756281015024 2.379986072995034 -13.404153214834196
-29.087462120300735 3.6193118140664637 -15.149137250548476
-31.65637712030073 5.715112376566465 -18.440996438048483
-34.217859495300736 7.843331126566465 -21.708876188048475
-36.199755120300736 8.958075001566465 -23.812037688048484
-38.39964706196741 10.72742946823313 -27.129671667215153
-37.485661745300746 13.507714376566472 -28.104735313048483
-35.50601620958645 12.411687644423605 -26.418083286262767
-32.959175495300734 10.050186501566465 -23.662476656798475
-29.231915776550736 7.116798189066465 -19.641890750548487
-25.694435195300734 4.343277068233133 -15.61502763388181
-23.346136245300734 2.5004831265664667 -12.27138775054848
-21.381858057800734 1.387097814066463 -10.103431250548478
-18.70579446405073 -0.9348892171835379 -7.035387250548481
-15.118255361967389 -3.65695759843354 -3.0201039005484858
-11.451079932800724 -6.452285092183541 0.8882691557015185
-8.693091870300725 -5.677834498433542 1.4015211869515145
-10.362888370300725 -4.1905843734335395 -0.7849825630484801
-12.601243918377651 -2.2667625368950755 -3.6458043851638653
-15.472829807800728 0.31697012656645995 -6.626542063048479
-17.600830495300727 1.6611951265664562 -8.507098313048482
-20.178188026550735 3.836786814066464 -11.780466500548481
-22.747078138157878 6.0683627872807415 -14.72781742911991
-24.67357543280073 7.1463792515664615 -16.65860756304848
-27.119601932800737 9.090383314066461 -20.13231671929848
-29.758500245300738 11.332853564066463 -23.248879125548484
-31.805406557800737 12.523041251566465 -25.259638188048484
-33.99252169530074 14.338301834899804 -28.571692133881818
-33.03541587030073 17.133883126566467 -29.548222063048485
-31.080722209586447 16.0389474301379 -27.808287643405624
-28.56337796405073 13.749844220316469 -24.974636656798488
-25.998437807800734 11.642744189066455 -21.710821438048484
-23.947826932800737 10.41461306406646 -19.701662438048476
-21.377418995300726 8.147167934899795 -16.81200626721515
-18.986791495300736 6.234287501566461 -13.54302662554848
-17.023794932800726 5.157773564066462 -11.350060750548481
-14.384462339050724 2.9165520640664617 -8.18700543804848
-11.878949995300724 0.8890467515664646 -4.78710256304848
-9.980767352443584 -0.18033142700496643 -2.8351274291199053
-7.303325651550725 -2.380548467183539 0.027050218201514653
-4.516054682800732 -1.644726123433534 0.4742385619515179
-6.203898495300724 -0.15439674843353757 -1.687813875548482
-8.610011028634059 1.9080580015664623 -4.882073933881817
-11.18077087030073 4.202199814066466 -7.759531875548484
-13.25867099530073 5.487311126566466 -9.729046813048486
-15.832468995300728 7.641514314066464 -13.013656969298479
-18.418865352443593 9.906016215852178 -15.900538929119913
-20.354370932800734 11.010818751566458 -17.800816813048485
-22.771619182800737 12.911878064066467 -21.324681844298475
-25.372526307800733 15.075119814066465 -24.525716313048477
-27.408852932800734 16.218102126566457 -26.566036125548486
-29.512574028634067 17.93807556823314 -29.96655993388182
-28.521755057800735 20.67958581406647 -31.09666300054848
-26.544550066729304 19.639229930137883 -29.345916643405626
-24.106132432800734 17.421716751566468 -26.378805156798485
-21.60359918280073 15.391780689066461 -23.00767112554848
-19.553630182800738 14.19996700156646 -20.967006875548485
-17.01019249530072 11.948844801566468 -18.047012833881812
-14.651911495300727 10.055280689066464 -14.74227268804848
-12.700870182800722 9.007180314066465 -12.513053625548482
-10.090066932800728 6.779702095316462 -9.31021956304848
-7.597182745300728 4.775722939066462 -5.88465656304848
-5.705623423872153 3.722839858709317 -3.918231857691339
-3.0389673078007275 1.5476528765664614 -1.0271197192984811
-0.24307593280072304 2.2608050015664674 -0.6016544380484792
-1.9258941203007272 3.723815751566459 -2.788571625548485
-4.3027296619673905 5.755489634899792 -6.010848400548481
-6.850842370300722 8.028410501566462 -8.913551688048484
-8.919706307800727 9.311271564066464 -10.899898688048482
-11.474365464050727 11.42776537656647 -14.228888313048483
-14.02273328101501 13.679317287280757 -17.16582014340562
-15.812578923872156 14.722691787280743 -18.95812064340563
-18.34591490155073 16.62431440781647 -22.652713000548484
-20.885707932800734 18.70360468906646 -25.96429750054849
-22.86815368280074 19.78390456406646 -28.098277875548483
-24.979115895300733 21.424242668233138 -31.539108767215144
-23.969380432800733 24.123546314066466 -32.631148063048485
-22.056545638157875 23.136197501566464 -30.796808143405624
-19.612621776550725 20.986687689066464 -27.802640156798475
-17.123848495300727 19.00499018906646 -24.402396875548483
-15.097479807800724 17.831822314066464 -22.337507125548473
-12.581620795300724 15.630069668233132 -19.355189567215152
-10.24720512030073 13.770133626566462 -16.02240012554848
-8.309758557800727 12.72391543906647 -13.787500250548481
-5.7250244015507255 10.544476595316464 -10.53463706304848
-3.25782012030073 8.600354564066464 -7.057661313048481
-1.375000852443583 7.555810144423603 -5.071087214834195
1.2778850359492733 5.400190657816465 -2.144169375548481
4.0894931296992745 6.073497314066463 -1.7633587505484822
2.406501067199276 7.511225376566465 -3.9697235005484846
0.039144138032609514 9.500136101566465 -7.230016067215147
-2.476210932800724 11.731867501566462 -10.195313000548483
-4.527957495300729 13.004663939066457 -12.20405987554848
-7.0577373703007265 15.086756032816464 -15.57088193804848
-9.567847066729298 17.3214511444236 -18.559706786262762
-11.474567557800725 18.405827751566456 -20.49834068804848
-13.861547120300724 20.198188782816466 -24.090691438048484
-16.38506024530073 22.231185751566457 -27.443673500548485
-18.361076120300734 23.28433306406646 -29.586914188048482
-20.46670092863406 24.802241234899796 -33.089938900548496
-19.397750120300742 27.433989189066466 -34.30236475054848
-17.47012220958644 26.458384001566465 -32.474817500548475
-15.058555682800728 24.37284218906647 -29.403187313048484
-12.604797495300726 22.47212962656647 -25.932229813048483
-10.592329870300723 21.306320626566468 -23.84930731304848
-8.107434795300726 19.143825601566462 -20.810395967215147
-5.790695870300722 17.34852506406645 -17.42581018804848
-3.866843432800728 16.32169812656646 -15.180411188048483
-1.3073252765507286 14.169286439066465 -11.893572250548482
1.1486896921992749 12.250533501566455 -8.399480875548477
3.0293596475564164 11.218464001566463 -6.407101000548484
5.655515098449275 9.069697595316462 -3.4572353442984793
8.487829567199272 9.636538689066459 -3.15260137554848
6.81599981719928 11.068511501566466 -5.370897313048481
4.455887538032609 13.025974968233133 -8.649459400548482
1.95919837969927 15.256543564066462 -11.626317375548481
-0.07754287030072682 16.535804501566464 -13.638224750548483
-2.5980424015507255 18.59482937656647 -17.025250344298488
-5.093391352443588 20.78176521585217 -20.059138357691335
-6.9667040578007295 21.83255843906646 -22.04742756304848
-9.313025245300722 23.515953095316465 -25.724829531798477
-11.811276182800727 25.500400126566454 -29.116188875548485
-13.790236495300727 26.551354501566465 -31.263775438048484
-15.902831828634062 28.07896090156646 -34.76456256721515
-14.759467807800727 30.62195462656645 -36.03461537554848
-12.812927138157873 29.63315500156648 -34.232543571977054
-10.456470589050724 27.559929907816468 -31.12563075054848
-7.038444682800729 25.13035400156647 -26.567479250548484
-3.6200595619673956 22.47586090156647 -22.381531267215163
-1.3210393703007313 20.743323376566465 -18.956907000548483
0.5965916296992759 19.744965814066468 -16.687074125548477
3.147707910949271 17.620288907816462 -13.376797344298483
6.507130238032607 15.196946901566458 -8.991614100548482
10.12863769219927 12.512632376566465 -4.973417781798481
12.977192442199282 12.94559043906646 -4.766328813048485
11.30642469219927 14.362791689066459 -6.985486250548487
9.680405647556416 15.543979358709313 -9.126891857691342
8.260952317199267 16.99265518906646 -11.236429250548479
6.425319129699272 18.587068501566456 -13.201396063048481
4.391621567199271 19.88196062656646 -15.202412375548484
1.8968950046992736 21.884421282816465 -18.633433031798482
-0.5622937095864435 24.022087001566458 -21.720635643405622
-2.425792620300724 25.06871431406646 -23.716590563048484
-4.041587307800727 26.072907314066462 -26.179951000548478
-5.450816245300725 27.330651064066465 -28.65702168804848
-7.335881138157867 28.73582500156646 -30.973908857691335
-9.153210807800727 29.67798981406647 -33.03597518804848
-11.208702295300721 31.08909823489979 -36.57758196721515
-9.988965682800726 33.440823189066464 -38.02850925054848
-8.102681281015013 32.498881572995046 -36.156810214834195
-5.815910557800727 30.520693689066462 -32.94784115679849
-2.459539714050729 28.24151459531647 -28.289934313048477
0.9036315713659405 25.6178212348998 -24.059935333881818
3.208008504699274 23.83393587656647 -20.68308568804848
5.1549018796992705 22.788706189066467 -18.471293188048485
7.04397033803261 21.339034001566468 -16.154300167215148
8.580597671365945 19.859001001566458 -13.625887417215148
10.948111104699274 18.46807746823314 -10.590911400548483
14.541925535949279 15.80216828281646 -6.548330531798486
17.37563350469928 16.140393439066454 -6.40891875054848
15.674612629699272 17.610448689066466 -8.558584938048478
13.279571704699281 19.546912134899806 -11.806490000548482
10.914371129699274 21.609861689066463 -14.979298688048484
8.943004442199273 22.81747206406647 -17.07197912554848
6.074002379699273 25.09417583489979 -21.102158292215147
4.023900218984987 26.927203715852176 -23.57808264340563
2.1513366921992745 28.065937439066474 -25.503011438048485
-0.23557540155072498 29.77230765781647 -29.11155334429848
-2.5961247453007275 31.483868564066462 -32.733285750548475
-4.46605112030073 32.36704537656646 -35.026317875548486
-6.551367328634062 33.58872180156647 -38.615938467215145
-5.326820057800729 35.73221868906647 -40.14647100054849
-3.453974352443587 34.805336644423605 -38.25494585769133
-1.1707563703007287 32.89177725156647 -35.03628050054848
2.2093580671992736 30.548457095316476 -30.47364712554849
5.482150471365937 28.191762968233135 -26.04770106721515
7.737958192199278 26.667821439066472 -22.52582943804848
9.665179567199276 25.670441064066466 -20.289059938048478
12.212867660949271 23.499513751566475 -17.03957925054848
15.707032171365945 20.80903853489981 -12.977689033881814
19.28113794219928 17.99491775156647 -9.055367188048482
22.057867567199274 18.229554314066462 -8.913814625548481
20.40903425469928 19.650408751566466 -11.120261250548483
17.99743400469927 21.739804734899806 -14.242357833881815
15.512414567199272 24.125063126566467 -17.055439188048478
13.464988504699274 25.499224314066467 -18.957252250548482
10.964444567199273 27.426938939066464 -22.37817068804849
8.562019147556414 29.40292307299504 -25.583518286262763
6.722458379699274 30.39700206406647 -27.61060768804849
4.416836723449275 31.988075876566466 -31.288024844298484
2.027683442199274 33.78944962656647 -34.806948625548486
0.25284593327070176 34.58073714442361 -36.93167942911992
-1.9424217953007257 35.570837401566465 -40.66681263388182
-3.6475017453007226 36.49985512656645 -43.86109237554848
-0.788248120300727 37.44486706406648 -42.316460875548486
2.5069288307862334 35.74965876243603 -37.874432348374555
5.666640692199271 33.74601462656647 -33.33222925054848
8.592514688909796 31.677593343671735 -29.58119392160111
12.223853192199273 28.98810556406648 -24.589417188048483
15.843430254699284 26.548722064066467 -20.19388981304848
19.205154004699267 24.01009706406647 -15.652983000548485