2.0314535659597985 15.295438807456108 0.4527359250485322
1.2540088491948527 13.229131638826988 5.319425260659493
-0.20304141922112545 12.81545226798469 7.311873119748957
-2.36710544595657 10.800347812211045 10.275323114057777
-4.162547381386777 8.825751818947484 12.312715856672625
-8.850510682852583 5.683838623888017 13.391905591852922
-12.092650742018726 1.0409275811497507 12.91291292613273
-12.149123796781225 -1.9087642195198682 10.487693842539265
-13.838472016274224 -2.9228050277431725 7.013223694950502
-15.756184141940139 -1.3804493914934253 2.9192659653675563
-15.239214475288376 -1.3868929321072856 -1.2033659933131495
-13.339590144316851 -3.606488478197623 -4.859100719827196
-11.665483843949426 -4.579687151827749 -9.355254900100327
-6.419106412638503 -7.535756889361727 -12.691380083078872
-1.6775325568368953 -8.062356241945826 -13.185849780129608
0.6222711078656822 -9.134333880368409 -11.613545203242147
3.1088608765889614 -10.53696651292262 -9.828950999192893
4.610842164710559 -13.739889620649171 -6.7791248173955205
7.488105917159385 -14.939530112854353 -4.342918062929881
11.057499876093967 -13.273639362432565 -3.2500561889978616
14.203339735566697 -10.446427678553695 -0.9711663555159673
14.897052364057572 -6.553806844673793 -0.6398975869224351
14.512698442006359 -2.4631902710017908 1.4926509206790728
14.420808131411333 1.6811256426498333 1.1234238093142384
13.76274218671205 5.384938090490792 -1.691164913793671
11.815788613314865 8.989420510939983 -2.2322931093568177
8.51062749484922 12.033915727241958 -0.16086165213430886
3.858557578153424 14.283708209736 2.621148774249489
-3.3628210923278914 11.585737900912656 7.4090724322732235
-5.92936909310059 8.707509603382386 10.835153226217516
-4.851875239330594 6.507296701203679 13.462625859616637
-5.860866646692002 2.054498114596839 16.007552334072173
-3.1080363056175413 -4.389315219336252 16.009886911916105
-0.14486491343980087 -7.214410421074397 14.360240243874221
-0.2806902691204663 -9.69070122162384 12.278202537005622
3.3526807829196663 -11.644972292065505 9.2772725272732
6.860345593066818 -13.140593592088415 6.277081784656055
11.247499025513171 -11.869588772533845 4.34347305208019
14.431085392108576 -9.463776898414572 2.046510492115128
14.92877192742854 -6.4710199895161695 1.7508144992570378
15.42495387102991 -2.600927535822349 -0.8835502360902757
14.512288429492363 1.4394721593345954 -1.228472512608693
12.813330509217572 5.3795755735226125 0.6682433159975044
11.523748550977869 9.264133151896608 0.11163140608694418
10.933032897279212 11.997262655202837 -2.7806657837314406
6.421502102817096 14.317853082778507 -6.888985483727381
2.0520149476288556 12.61506998825269 -10.484285692887896
-2.956302730206212 10.101516778399315 -10.947342681134073
-4.442998933144771 6.118961434813722 -14.319769654374639
-5.78386063050087 2.3301411561184047 -14.661922750540908
-4.4505074583293895 -4.984748942773622 -13.988931524782624
-3.0839730580308493 -9.275671606852113 -11.609236327471777
-0.8541420201613931 -11.043904913151218 -10.932140862898267
2.0818267408320414 -12.635943497026291 -9.51626484217006
6.228135673990938 -12.058868473420974 -7.881905234918704
8.81862918535469 -12.847170162684371 -4.8017295095993
9.358248611126413 -14.891556374877633 -0.3737125767002373
8.959353889458791 -14.401879904199864 4.366977433543822
4.487358642970671 -9.622205518603828 11.164296757153553
-6.443910614821376 -4.496277643502459 13.605540599733969
-11.818894867732366 -1.8313098537445702 12.457598041614231
-13.60544950247537 -0.03185199342345724 10.739610357343462
-14.494189344225878 -0.42529272585698263 6.754509911206335
-14.395141495255151 -3.8101769893054382 -0.9901040008747874
-15.026858662124331 -1.9439481111489747 -5.316313035845924
-13.183742001521994 -1.1414858982924365 -8.780164465027767
-10.955769628524143 0.669198912991657 -12.284899089504119
-7.800431667287309 3.6152222374579095 -12.68963342920858
-1.3386962483472746 9.45008361378695 -12.90480868052881
3.2012767910390245 17.623271825046384 -8.382795443229478
0.23761478800944272 14.00754377413998 -9.722023227046558
-5.454078631543739 6.243049824071379 -12.170466884039783
-1.6261958226662498 -7.9247914184674535 12.591417215532864
8.527773787214286 -11.862456847973888 7.449904363947142
1.996291399770033 15.279803608069429 0.5146931213933447
1.0613496602050645 13.985995948153542 5.574126533471496
-0.1333580597608116 12.655223729936818 7.4196458034657065
-2.481895926328919 10.724291571911026 10.369616151623942
-3.9980264686353624 8.406207879780467 11.94056492292107
-8.912056145476024 5.583682444363543 13.440486921450201
-12.126266256048181 1.0463880636361091 12.831129373879941
-12.915005620678002 -2.1507797884398694 10.824937942389862
-13.67462674582341 -2.8803006138675444 6.870170721610814
-14.949851261748769 -1.071965714550967 2.7025496304251573
-15.418749823434453 -1.4808263895641358 -1.2968412006543966
-14.077162390702927 -3.9875606565612114 -5.184188749794086
-11.633441930996401 -4.575527384006424 -9.444877608668438
-6.3271740038220825 -7.518182562599664 -12.504462855738394
-1.6554522849232784 -7.704897125820242 -12.361159310955443
0.6881665799649759 -9.198702614606825 -11.55232549227827
3.2687201351382735 -10.872772916964413 -10.301593703540092
4.778767091581465 -13.934519283266246 -6.852774763695619
7.312351430576238 -14.283245212514231 -4.072464231394083
11.051430843213351 -13.363483343696654 -3.0343452891164517
14.01033477734246 -10.275761645705085 -0.9916322372744945
15.481117087898063 -6.612833326263412 -0.5073899275403356
14.73174493308315 -2.32145654784451 1.5544825593282927
13.870573100493411 1.5517164202619058 0.9771103113409109
13.510718797293361 5.4034999369477195 -1.7622701277894703
12.309704660257394 9.273873966877945 -2.052494472983052
8.60221058132516 12.272314045681131 -0.1410579727266538
3.808173779004788 14.09647436189006 2.6867401052227793
-3.4055396542781446 11.550059439005098 7.467750093724652
-6.075761691705889 9.133763995694503 11.183837942201853
-5.184370296521268 6.526250963327467 13.526674124266437
-5.938688357416752 2.056576264962587 16.201575346019478
-2.9840569801652745 -4.4972394161629845 16.164219479485496
-0.07940126993818446 -6.8023976103898 13.919815195522139
-0.01962386235528517 -9.173403494980265 11.787946050015131
3.3342079391764172 -11.727212682546172 9.163525868237846
7.098888923900635 -13.51904736253983 6.680016976698965
11.404185993903578 -12.069256328025673 4.369416813050076
14.441614995639913 -9.316913427623028 2.092333069247492
14.371595987794 -6.41547843535334 1.6011814288696362
15.190203606363328 -2.489169859862241 -0.9463022151950062
15.068040212085235 1.5888709761834277 -1.0805220035500196
12.97477046345305 5.585829115155221 0.7186504788214944
11.051126795885304 8.956861150463766 -0.05567235777675558
10.868941449166545 12.087073717167165 -2.84702204933366
6.317282581283536 14.195600409658834 -6.88114327803124
2.00280557978629 13.018765285539502 -10.940724735969647
-3.0048983643344283 10.030016295932363 -10.972635578293701
-4.049677740774921 5.6046170135916675 -13.721952326686186
-5.935349979319704 2.320687620916072 -14.802047335131528
-4.452670781922659 -5.10870457085731 -14.10406778145316
-2.989740453780883 -9.752956107655969 -12.35628492139665
-0.7255159388339675 -11.103132625597288 -10.885292407119435
1.75983795381346 -12.405888551471659 -8.87387105108372
6.230148291158714 -11.952861571010342 -7.638198389128949
9.093100605871198 -13.255311713758458 -5.138869171188875
9.555234281454542 -15.02783466580332 -0.37939176830114835
8.83636593080031 -14.415284000278055 4.4614031366195634
4.382956295003533 -9.489746504495058 11.13358910355776
-6.554201283090317 -4.518185242092463 13.73131373824014
-11.377440247943 -1.8016619551582098 12.075774613851783
-12.924560811971457 0.16711423028454198 10.22777703422748
-14.698437394165618 -0.5085912793492174 6.737076604297206
-14.19373963983331 -3.735625678866274 -1.0600930985336579
-14.23416046606831 -1.574569806534177 -5.190477602534271
-13.296319569247235 -1.206536566050263 -8.946432756173504
-10.538765224158753 0.4704966045679462 -12.163133305155126
-7.9073173184780385 3.8176972216134586 -12.646041160980557
-1.2432233370601726 9.532962048929608 -12.866601046264185
3.251682476975581 17.678059060363445 -8.358968839379582
0.37516382927127984 13.632956674213718 -9.270654116217104
-5.995470684101256 6.61460432740874 -12.766068768265804
-1.7150971452483048 -8.325997421057888 13.040826717153324
8.274659906922734 -11.462251670749053 7.078306088003874