2.0138724828649153 15.287621207762768 0.48371452322093833
1.1576792546999586 13.607563793490264 5.4467758970654945
-0.16819973949096856 12.735337998960757 7.365759461607332
-2.424500686142744 10.762319692061038 10.322469632840862
-4.080286925011069 8.615979849363976 12.126640389796847
-8.881283414164308 5.633760534125784 13.416196256651558
-12.109458499033451 1.0436578223929298 12.872021150006338
-12.532064708729614 -2.029772003979869 10.656315892464562
-13.75654938104882 -2.901552820805359 6.94169720828066
-15.353017701844454 -1.2262075530221959 2.810907797896357
-15.328982149361408 -1.4338596608357106 -1.250103596983772
-13.70837626750989 -3.7970245673794176 -5.021644734810641
-11.649462887472914 -4.5776072679170845 -9.400066254384383
-6.373140208230291 -7.526969725980693 -12.597921469408632
-1.666492420880087 -7.883626683883034 -12.773504545542528
0.6552188439153288 -9.166518247487614 -11.582935347760204
3.188790505863618 -10.704869714943515 -10.065272351366493
4.694804628146012 -13.837204451957707 -6.815949790545566
7.400228673867811 -14.61138766268429 -4.207691147161982
11.05446535965366 -13.318561353064604 -3.1422007390571554
14.106837256454579 -10.361094662129387 -0.9813992963952309
15.18908472597782 -6.5833200854686025 -0.5736437572313856
14.622221687544753 -2.3923234094231502 1.5235667400036832
14.14569061595237 1.6164210314558691 1.0502670603275746
13.636730492002702 5.394219013719256 -1.72671752079157
12.062746636786128 9.131647238908963 -2.1423937911699347
8.556419038087192 12.153114886461541 -0.15095981243048137
3.833365678579106 14.19009128581303 2.653944439736134
-3.3841803733030185 11.567898669958879 7.4384112629989385
-6.0025653924032385 8.920636799538444 11.009495584209683
-5.018122767925932 6.516773832265573 13.494649991941536
-5.899777502054377 2.0555371897797126 16.104563840045824
-3.046046642891408 -4.443277317749619 16.0870531957008
-0.11213309168899266 -7.008404015732098 14.140027719698182
-0.15015706573787574 -9.432052358302053 12.033074293510376
3.343444361048041 -11.686092487305842 9.22039919775552
6.979617258483725 -13.32982047731412 6.47854938067751
11.325842509708373 -11.969422550279758 4.356444932565133
14.436350193874244 -9.390345163018798 2.069421780681311
14.65018395761127 -6.443249212434755 1.6759979640633371
15.307578738696618 -2.545048697842295 -0.914926225642641
14.790164320788799 1.5141715677590113 -1.1544972580793564
12.894050486335312 5.482702344338919 0.6934468974094994
11.287437673431588 9.110497151180187 0.027979524155094273
10.90098717322288 12.042168186185005 -2.8138439165325497
6.369392342050315 14.256726746218673 -6.885064380879308
2.027410263707573 12.816917636896099 -10.712505214428774
-2.9806005472703214 10.065766537165837 -10.959989129713888
-4.246338336959846 5.861789224202694 -14.020860990530412
-5.8596053049102865 2.3254143885172383 -14.73198504283622
-4.451589120126026 -5.046726756815463 -14.046499653117891
-3.036856755905866 -9.514313857254042 -11.982760624434214
-0.7898289794976804 -11.07351876937425 -10.908716635008851
1.9208323473227504 -12.520916024248974 -9.195067946626889
6.229141982574827 -12.005865022215659 -7.760051812023822
8.955864895612944 -13.051240938221412 -4.970299340394088
9.456741446290478 -14.959695520340476 -0.3765521725006928
8.89785991012955 -14.408581952238958 4.414190285081691
4.435157468987103 -9.555976011549442 11.148942930355654
-6.499055948955842 -4.507231442797458 13.668427168987055
-11.598167557837684 -1.8164859044513904 12.266686327733005
-13.265005157223413 0.06763111843054237 10.483693695785469
-14.596313369195748 -0.4669420026030999 6.745793257751773
-14.294440567544232 -3.772901334085856 -1.025098549704222
-14.630509564096322 -1.7592589588415757 -5.253395319190098
-13.240030785384615 -1.1740112321713505 -8.863298610600634
-10.747267426341448 0.5698477587798018 -12.22401619732962
-7.853874492882675 3.7164597295356843 -12.667837295094568
-1.2909597927037235 9.491522831358278 -12.885704863396498
3.2264796340073025 17.650665442704913 -8.370882141304525
0.3063893086403613 13.820250224176851 -9.496338671631833
-5.724774657822498 6.428827075740059 -12.468267826152795
-1.6706464839572774 -8.12539441976267 12.816121966343095
8.40121684706851 -11.66235425936147 7.264105225975508