-47.02784285542129 -7.411846432975902 -26.909580757728506
-45.42138314179616 -6.3176802449464216 -24.19584653939112
-41.563158328461654 -5.161314225882464 -22.947809640878383
-39.964428848041706 -5.904893542273413 -17.724239309964453
-39.927674226708724 -8.405865598855248 -9.973741920096275
-40.048993756372866 -9.85870851436784 -7.254514830091631
-40.92959358374075 -13.338478221341312 -1.4070849629957218
-43.95267297886123 -16.194634203024822 -0.4523670334418447
-44.979281627045495 -19.090364258595372 1.4178295859537537
-47.301405882614986 -21.152918823479062 2.7925354047388575
-48.38729248890172 -22.43459372628403 2.090044986787705
-50.08191349246973 -23.714702304667043 3.2306359712618424
-49.69324244227069 -23.317275569607553 1.347713987178242
-47.68897575392974 -20.93364106498032 5.236049346790401
-46.30331116660497 -19.4212841832435 7.047011506793019
-45.77530028594097 -19.773016942701435 9.189701791532029
-42.46171376630217 -19.505217416632405 13.365769162301092
-43.290062442254694 -19.798138807815388 18.298603912006133
-43.080342253699115 -21.531231674358484 22.692639608552113
-42.97616425572599 -21.96848345029946 26.01887292828642
-44.394522362251934 -22.748258073134494 26.956568162390475
-45.11000582398975 -23.605752639654355 25.40388283350698
-42.215023241237255 -21.051134754776086 25.52221897819506
-40.08383852491389 -19.180321317916267 25.144751891212994
-34.04334049628127 -15.22900658881197 25.88183609579858
-29.18169291821788 -13.647521204735932 27.765220160146026
-26.82728859861396 -14.13657849736914 30.44657382996803
-24.695345649247333 -12.983205157392476 32.305452993008345
-23.52448088114114 -13.294782005131177 33.849426787744925
-19.39092174481132 -12.336574703979977 37.446181479762046
-19.18821215043364 -13.031937018588025 42.45284851710955
-18.182124638485583 -13.999898134276037 43.695293595192894
-17.80953743847383 -14.986685676950657 46.47335985857315
-18.898383710796963 -17.575575521280477 49.23321700237389
-16.423899905441875 -14.541346915975595 48.97080931687735
-14.827335644522377 -12.214402521916954 48.318774151494495
-12.736730703472892 -9.677538216947635 46.98487173803281
-9.478235729838712 -6.96052361456709 48.493296432261126
-5.3501451950187855 -4.6968122597616 49.5471930170848
-2.3785590864401973 -4.654036517624223 51.62336637840186
-0.8165955113969178 -2.988693315081497 52.958565275913784
-0.315257480187207 -2.7561797356935833 54.58402594354802
1.06386764372763 -0.5985731488344328 55.738772749298185
0.3125261793460593 -1.1523295956783215 51.68216902000423
2.026527711810759 -0.5378293699267355 47.726245190404605
4.451570676063229 -1.2697119568699757 43.26555101699437
8.339890449269614 1.684072372263273 41.125449714520855
10.306279662456491 1.391304156802003 40.385295004466784
13.21837842534339 2.3030541694957716 39.46402695989498
16.393108911153263 3.160055485928564 37.47462877413473
20.625213124080602 5.0387458148330335 38.43314054860658
25.393117608281916 6.120977904236298 39.261096337802186
28.046242428022605 5.787776939183163 41.81181148153651
29.927334783451375 7.141840945956853 43.07948241716665
30.477659788700066 7.448313212610953 44.894606056224056
32.18778699063459 9.026628227138128 45.56978514973922
30.462663452797813 7.984088921425285 46.374083245644655
31.56655624074238 8.508101881235762 41.62990948153112
31.88851523460904 8.67698884414665 38.47254371848968
33.336245434768905 8.623962442627052 37.14749775860269
35.49303129451891 7.995308709266395 32.279172925067414
39.37065214078397 10.64128675480344 29.911174402437048
41.1080957986473 10.228239035461632 29.187833879551835
44.038794030435106 11.126792441008087 28.06014403242702
46.61990278768295 12.010571538662333 26.23662431478993
48.20207251770981 13.02246434397226 27.018586154435177
47.77522307786992 12.44396829318568 28.830052214609072
45.28538728765946 11.630724834079738 25.599222960718308
43.27957344608068 11.162918563554122 23.459966308052902
40.09478073731808 9.945149735258875 19.506871960432942
41.849314705982195 9.934289320178976 16.967390690398226
41.46150278551228 8.658211455893955 13.319892384387256
36.52101388027907 7.29662409712888 8.099683679211081
33.422482248584714 7.205961644848979 7.527371008345774
29.788016835412034 7.1739509016590945 4.845260875547405
25.915159094272372 6.555672076829192 4.483675577019357
24.0557611227438 5.6347876615059675 6.351706940665969
20.36664238777487 5.530076979806886 6.762912801171459
17.095382904520083 4.955670415128522 8.268999176649965
14.529611945079914 4.0419855928606125 10.059650068742739
10.49898853760124 2.0681229476496563 10.914958026645111
7.834006062605987 0.7103244327403786 13.58069223971502
8.058497744231033 0.38888010184841165 16.580475552695468
7.551956326502233 0.7596848657519123 18.94493952711988
5.939626137706154 0.5945589674434046 21.290865341053767
6.86566754156586 0.2614091964976507 25.087772791940633
10.173760251204026 0.5659562677872145 28.257903148701338
10.680498999311904 1.4917194149439825 30.104055429038002
9.577654382972925 0.8502052015417689 34.5252513163884
8.795552690908046 0.8980100994434395 37.7518222476551
5.086561596522009 0.9396409246400798 44.28229130331228
-1.3566579474884068 -2.352177735941808 47.89230306378553
-3.5845058090904445 -3.7682452971690226 49.81303313763236
-8.171073607708792 -8.599246696814301 49.49459007409854
-14.093598497449504 -10.673724374570545 46.163412987287636
-16.25703521613722 -11.65469751110184 44.19991735953799
-21.470904534464005 -12.896720976261838 38.586528236791445
-23.151271930378176 -11.533722979639373 30.49245140615853
-24.338976493420052 -11.523461797558141 25.740144376989655
-22.41726906931712 -9.40049918313513 23.119669860938746
-18.880512211089442 -6.670323268123013 22.29284072152587
-17.294602299560417 -6.346813255534515 20.953484570194643
-16.42238957645367 -4.500131212726207 16.281905598170408
-15.833969644186071 -3.1329822863482 12.907552027217326
-14.51503172070537 -2.0002035006780403 10.577513704467016
-14.624409549864462 -2.6391379627737472 8.570638405611694
-17.0300737593431 -3.5652216614504937 6.999107853308181
-18.13022756055788 -3.1029014014241674 3.208137719884773
-16.977051467990268 -2.0015500371103485 -1.0491091418864975
-17.001381679932816 -2.525392104554489 -2.9234497943519795
-17.21264118678289 -1.4418317920279322 -5.117655049351213
-15.648589557043254 -0.9456802478455112 -6.4499251942806035
-14.592984898766387 0.48388616022741454 -10.561815670757897
-12.005439483285194 2.389860935018637 -12.858253997165258
-8.55179774691473 4.051700451341542 -12.701075999526758
-3.9598612881215915 4.611930484710886 -14.444877191113493
0.04839030422716617 4.100356981626599 -14.666929506618303
3.8310305564677156 4.053278901025107 -16.867273368724884
10.708101271328292 3.8384147704908798 -13.909138372672382
16.047264607740832 4.730152536471696 -9.965453163099518
16.8214008875313 5.119855137272538 -6.78748729694484
15.611990879299503 4.665204226465903 -2.9534309889182073
18.414485827437385 4.4723716637677455 -1.2818358481949665
19.62248139785753 5.512059621379511 1.326145223241712
22.81740428214133 6.680259064134643 3.874968498716505
27.872946351920955 6.8410636045820565 7.233456109749337
30.812705896955563 6.735940962322445 7.1863777355376035
35.54300809180431 6.703406208812379 5.29860310577895
38.19641008493306 7.0539292168092915 4.23064905471062
40.425270027875435 6.964540590580725 2.39944987234517
45.13995145992868 7.279572005122536 0.5265424536102115
46.69106455205931 5.99985626860709 -4.1308297215476495
48.010306591528526 6.779632027617065 -6.7747586605484
48.74865194021896 7.478849150521209 -9.742965798433547
50.02869354118902 7.491236954293692 -12.442244351120126
48.45874051996485 6.97429047529517 -16.74645361022676
46.810720893794844 7.324398811581157 -21.345098463396496
44.20965460930445 7.794915936474735 -22.323150610690636
41.75870349754051 8.217874125518545 -23.98014135526249
39.03225035178315 7.958821732335271 -24.943316165444653
34.57424952907249 8.849255748461198 -27.95899698026806
28.10667337971008 6.944282251557678 -27.41219416139657
23.723297321678682 6.576292116350629 -26.82167700508151
21.03800191952723 5.791524009008867 -26.965222425185097
19.977609817290592 4.399571219628582 -25.227588796579397
18.362089667425977 5.017002320395221 -20.532293384641147
16.112283411438487 4.671180358217488 -18.30705954018021
12.38023410760634 3.6280659766406815 -18.06979009457356
9.942794094405304 3.8814839183003587 -16.675579766117988
4.011674585945266 4.083404917558601 -14.44204742992873
-3.0181890495918946 4.746231072177065 -17.111669086593253
-6.027649399737413 5.056645818944565 -18.47705617119928
-6.5191751996104585 4.161342516678195 -20.124661861997033
-9.662831011540673 4.238162260570147 -22.44859194399627
-8.500174906657037 4.864472196031642 -25.874103546957024
-9.49390360895235 4.156713288555778 -28.989884196622388
-10.336560844801413 4.152051962628955 -31.685016802565396
-12.946565079616027 3.4141643865522324 -32.79372819735467
-15.326434891911683 3.187963080926963 -34.627466471141176
-18.085109539813647 2.2624870833391904 -35.42164928981314
-20.40619252803792 2.587642174860949 -37.98406040163126
-24.21689328663264 1.4379199674697118 -38.52938608507023
-27.01608384681713 -0.8967777753242501 -37.32645798363768
-29.94515650127564 -0.9369403168169247 -36.99803594952049
-32.996448007179005 -1.3796379858048056 -36.13358315262993
-35.91991155195192 -2.330090555018086 -36.09235601250156
-38.247822106323 -3.8884055754294096 -33.60574849695189
-39.16669383151185 -4.559664853080577 -29.756394211802792
-41.107181256601365 -4.3874718931148955 -27.519023428076704
-42.21467496834623 -4.314591332141258 -24.521331397223836
-43.66887406349491 -5.236779839508145 -22.26727304067588
-42.31338760203238 -6.39876701769162 -16.971722272090076
-38.437605667260435 -7.099947438621868 -12.083870858740475
-37.605723140194016 -6.423034673566537 -9.630495562139158
-34.45566434985879 -5.684936022127888 -7.34653700121735
-27.743904114869636 -5.338877845283031 -4.180422585852247
-23.879654346333865 -4.516011840841533 -3.816832699597354
-21.9968827383825 -3.227658490842754 -5.737792202214456
-19.51733166174025 -1.9384643343871573 -6.489349929963919
-17.294689237448967 -0.6576779793190516 -8.044319244541008
-13.177882542670867 1.0712823470222645 -8.61237864863433
-10.458797026022294 2.400306395273816 -11.121035817065634
-9.55922791152794 3.3043717215732062 -15.673788253855243
-8.646171678282 4.667251378279748 -19.68186409285764
-7.51590124793177 4.489952521704157 -23.20674294874032
-10.602077623037518 3.806980893137412 -25.286136883397436
-11.502734497760326 4.349986405527607 -28.095204919434856
-12.400027727657912 4.269259918201063 -30.979082374438303
-11.019059786341352 4.70640374303257 -34.42317440610757
-11.134526010605736 5.527165832817576 -37.159634796790435
-9.722378794277846 6.137902102060319 -38.67710274859048
-8.37163741124216 7.721902356363201 -43.52201320753871
-4.118219743516056 10.726629880612444 -45.1130409439819
-2.463724868221901 10.471242728420927 -46.45300045821994
1.2091235082107818 10.520066701830833 -47.92077843068859
3.450776980039575 11.286890658220315 -49.66584113127689
8.173309685531219 11.634530506074118 -48.84062253733737
13.000814156094513 11.027284672451097 -48.333106948898354
15.271445148549002 9.102294778817162 -46.36920316749892
18.08807426067465 8.66448906695636 -45.26602620989463
18.768919894747494 8.189805616877626 -43.30302100551163
22.623238443025663 6.900768632287607 -39.6145029441819
22.716747022282956 7.929166490374357 -34.04668918265482
22.75583701135853 6.799528129096695 -32.603199390571646
22.39419048320252 6.366503837072873 -29.338828248642514
22.567719185843497 5.859247149654794 -25.383222750201668
20.949985256885803 6.397320241767223 -24.06647370712636
16.768152433095995 4.079707646455298 -22.216834757243536
14.720972459829541 3.5022402028291046 -19.821543675951776
14.711101845346578 4.365838929393107 -14.472230510458564
13.939660894725813 3.9174597003000895 -9.357095883662618
14.968298367623278 3.9183107130479207 -6.215074517407917
17.8698446833321 4.746767554388597 -4.3338938432885366
16.45419899094001 5.505322527160288 -0.9134545893925937
16.63521721465685 4.966623012821316 1.0032518229523804
15.764484086553429 4.288003065082371 5.343579631379329
13.475044678565935 2.8502813659606354 8.469673764315177
12.079100277462807 2.5343476640648817 12.71919588030163
9.030759961073217 1.6952083818759245 15.219623030453604
5.4921234250309805 0.5525798101138137 15.086550651369233
2.9436610510596704 0.17863580585876093 16.75335302818178
0.6990495092196264 -0.40255770069930463 16.503657714949558
-3.0126423377679035 -1.3982117690007223 18.421771958745843
-7.149489454852886 -1.7760087459344902 18.07130138435522
-10.226554902831639 -1.232094329542997 15.415078889295582
-13.421606883049519 -1.959793669516224 13.133901384944334
-16.903101249087644 -3.199036464047353 9.698536767550515
-15.33116521077567 -2.198052600771078 6.55569364672079
-15.880758154573945 -2.5523034772130835 2.6819470524669904
-18.635343561162248 -3.423808468260262 -0.6811149619089967
-21.345717073477104 -3.472013384655968 -2.9600930182516607
-27.69397413908671 -4.031261638898015 -6.190300989556999
-34.733052870008116 -8.322788529573405 -5.677298865535831
-38.33713662978666 -10.010950483144285 -5.0505300953532934
-40.87423835991184 -11.626097341043153 -5.210983431276741
-42.21979150752918 -14.250588972171052 -3.0922087397518117
-42.29561114763988 -15.990877053308495 0.5595136026615031
-43.84301207034945 -16.89337428938919 2.8073045965307224
-44.663145080297355 -18.007795693670513 6.034283288203495
-44.04688155579368 -18.547175081563932 8.96424794328111
-44.80655875769254 -19.581769061010544 13.828169224480375
-41.320371915849215 -19.781259544793745 17.93118616393206
-40.534157885102395 -18.900553001877913 20.538722329634695
-39.069103698316695 -17.890901668788604 23.137741265495176
-37.59653578415849 -18.015321734245465 25.930304387436962
-33.33012727519979 -17.04937255417222 27.372135054746867
-29.103471536195816 -15.303046695934919 29.05476663187176
-27.364436192772963 -13.68808732100078 27.56001876462231
-25.775208761759348 -11.895622730718117 27.03437516210299
-23.429207553185368 -10.275518305448188 27.39424896127972
-20.807904736787897 -8.829529963462628 24.90681556188153
-19.734733552099247 -7.990305745781384 20.628134515821436
-18.96779252320207 -6.51384370508522 19.34231091079072
-14.900175669768448 -4.969752823721748 18.856377716451966
-11.07625881841925 -3.1398855908896692 17.67651163233495
-3.0534767720788354 -0.6183390535561963 16.095926892391734
3.8925288307132857 -0.37247470091243634 19.590897422167494
8.10457538020351 0.1681198529013983 20.759973489032156
9.204417990926643 0.830119923634786 24.457711139200246
7.9753661579809965 1.1013306648266479 28.768149025949064
8.441454987606223 0.5150097778026274 30.595592635837026
11.32430237680516 1.1625368336539594 32.12628293125392
12.084615165286172 1.959946665795267 34.34885480487608
14.33829909364887 2.864364686660224 36.991328678017844
16.13416732812841 2.950312711265673 39.578434263743716
20.80105685526226 3.298926295578858 40.13200515499863
25.55160605817976 4.6384802468626845 40.8383818715781
27.292070993974573 5.825600624554269 39.103336563711444
29.863601720222583 7.087530653213173 37.60842877594605
31.968832413711798 7.711482771905669 35.64580460618158
36.231755602184 10.014777884853254 33.48071552749877
38.75482574872988 8.968971077464602 28.88828522692749
39.8450398243968 10.008498959383239 26.343474565586202
40.66221493020461 10.516419839406788 23.265743740663837
42.305048550541635 9.86937169891407 19.05353484437205
39.88864644355648 9.02834506951858 17.597686504110918
39.10786748294531 8.63517356575319 13.806508546048534
40.832677740447835 7.398161453191065 8.164375203168682
40.60908314933796 7.411349059599496 5.410758348577674
42.02102166893488 6.941390322446931 4.040809863500733
43.544206349965144 6.155833476469762 -0.9981224683043095
47.739287022119086 7.28216433092021 -3.04296229781064
49.33889743800352 6.586469082098944 -4.319643915001225
51.99177011061699 6.689478376415141 -5.361753864944199
54.727648060373596 7.040815029219232 -7.2356077119745885
56.2653171049446 7.591256794433235 -6.591841163910922
55.97708047111156 6.327911436622372 -4.987091314278546
53.33543945375168 7.163602217398439 -7.858350440760719
51.265711729992475 7.454250065271122 -9.83330067597747
48.218678838734945 7.398943586208526 -11.761624835225465
46.819390621433115 8.328968433409742 -16.04102236426112
45.23939266620069 8.433426038122812 -20.67747942757708
46.213507077203225 7.945249351866339 -24.29223495353232
47.06687472927886 9.11199938119982 -27.817150400218935
46.51107515448386 10.49746551294732 -30.2337286044265
48.13313305809645 10.008831452550822 -28.971505541938843
43.695525815218 9.62514877795859 -27.50788974154557
41.246294580063896 9.288549422912382 -26.27773891143043
39.30655417973185 8.83816404955301 -26.990919088851516
34.1934802187316 6.779557712051627 -26.512396230850527
28.81654963003488 7.2896827176451495 -30.314538661011916
26.046443370241906 7.222366249239978 -32.22674775349671
20.71693043998123 8.474034760719626 -39.02409628841845
19.835920189486547 9.607631111094651 -49.15122268058779
20.80904474389337 9.769570226845255 -50.62034426935236
20.331292734193735 11.524748006549459 -52.794038589175905
17.584293426216036 10.777487439274203 -49.869692721677545
15.068967539161724 10.68975814074667 -48.27864587900201
7.875262922678342 9.522425734458277 -47.81513249507347
1.8035735532946087 11.467363178489222 -50.18473093751546
-0.5531557111856689 12.34879763540269 -51.61636159715008
-3.703091593449474 12.921161560631418 -52.73170081122368
-3.4297199059622567 12.555282745160781 -51.25613347403826
-4.0189035738814844 11.667916207570295 -48.553195609367506
-6.9293076716712525 8.870234483814961 -41.773208446803906
-13.368922319388094 4.7206016942687885 -38.407257925928135
-15.882697534691408 3.670028720662202 -37.102937003453576
-17.718713793366238 2.752696186829875 -37.56892301737938
-22.431152227986964 0.2879690493024124 -36.4023962956899
-27.057133383166352 0.5279953911077484 -38.8298156982649
-28.542588676247494 -0.7027930471162923 -39.583816806641885
-30.909202840414185 -1.0162916166904779 -41.46909579373844
-33.90244061951957 -1.2528020981883685 -42.66837350090389
-32.58701493584384 -1.1437304718268195 -45.01413686914521
-33.71727635437779 -1.2797647975243933 -41.161325552096564
-34.34388315801301 -1.5406509275149332 -38.376152437995
-34.38412125669104 -2.2640792728234542 -34.82698424123781
-36.82539698817634 -2.94388221305325 -32.12969673908699
-40.59959450943467 -4.440566640397009 -30.85277300583465
-42.82895674001905 -6.615033549117074 -28.208061703084514
-45.49341893263763 -7.265483329040734 -26.499465754570355
-48.94472283042811 -7.638127491236213 -25.049883289877805
-47.51834814180083 -7.146101231319449 -24.892323598491945
-32.04643671806944 -1.0689062254428847 -43.53663056597311
-5.266519423423051 9.80265048929553 -46.607264973475125
3.147272747174068 10.71871761125486 -47.83913537144068
12.622427489669171 9.23269402475313 -47.27844670106017
19.430590894358755 11.327943455119225 -51.11404779443766
20.908133497475283 8.036180812819774 -44.13255038112005
24.273590614369688 6.612689606871442 -34.967172090736454
45.589402731729145 10.429087502787306 -28.753300510519356
54.47003833837302 6.508186480862167 -5.278824489550805
0.16569895994429074 -0.42094072967235263 18.53104765877864
-6.825715210061345 -1.2497180733211337 15.769393489250186
-31.189797286836626 -6.6901812660083335 -5.155031506944456
-24.065049728778035 -3.0168077561304565 -5.472556244704969
0.04425269990222758 4.712200445489287 -16.83621883757959
7.842413699035748 3.6767105088768894 -14.451478461366904
33.600060627233006 6.873836294606927 5.278428698179545
25.540527677033765 6.661530211129213 6.648524295504143
-22.10906155115176 -11.747677919780353 33.41429794767528
-12.548056663432806 -10.548898009858323 48.694799915443646
0.7183450293402528 -1.70110392239575 46.19887802499073
7.837620889532286 -0.14958694643110562 40.16413585960102
31.480438517253855 8.981672638748288 43.934820783092384
0.18509435813274597 -0.8509137238637455 54.048782048511704
-18.399715833519394 -16.494225750714627 48.28379859883382
-44.25848513279283 -22.737368006973675 24.462529392541835
-49.28360650403986 -22.23156670482021 3.797373215047663
-47.03035757036423 -7.818790699869955 -26.751262074127194
-45.30880547496389 -6.306157206391868 -24.210089097869346
-41.81367545128905 -4.472659246378228 -22.685335373391403
-39.924529369523555 -6.038379353376689 -17.668187371684184
-40.037088192050156 -7.9549964154747 -9.68909895415439
-40.07823460233726 -9.9322480496793 -7.23290520001388
-40.83055760320718 -13.524637710405031 -1.3916641079257173
-43.49408563512482 -16.62225849457579 -0.6046002524970895
-45.13565511851151 -19.034834283950055 1.521293673962944
-47.06125312612631 -21.679830254361008 2.7234342709106
-48.63527652336196 -22.068705182317444 2.0238143826254666
-50.38614010007454 -23.361840792570508 2.9495501324762086
-49.884108600363405 -22.84830956896723 1.1739192920329464
-47.59031060436769 -20.86680847119926 5.252464340484318
-46.27796790531892 -20.108743976447116 7.272794728818233
-45.96003440038229 -19.301872128391295 9.249405581610533
-42.44032106451017 -19.520655311367207 13.486327433333326
-43.090526943727944 -20.416348899216672 18.15994542213852
-43.10025285432693 -21.588221438892784 22.683070846499177
-43.58956543563464 -21.608854328313257 25.899157722789774
-43.79529613288216 -22.877005359498483 27.378331623983136
-44.59374558358435 -23.803515217548245 25.610160382958515
-42.66245072975903 -20.819863785030844 25.136632017860684
-40.00717793565014 -19.192891423602685 25.19767626254063
-33.90739229964692 -15.184818419521836 25.815401683061985
-28.98141157613653 -13.964832321465844 27.211867596006307
-26.725641660355734 -14.06030472267592 30.441765656783303
-24.171365345339215 -13.555640141790391 32.22104873224924
-23.771192872714057 -12.824919652978346 33.95721017967202
-19.364932999316288 -12.389118904827786 37.5641876154743
-18.913900705213518 -13.59200139491773 42.1894884821674
-18.259886618822225 -13.459660471253693 43.98307452378846
-17.81425691120947 -15.045623163106534 46.465419640172016
-18.327124214198978 -17.664518341576155 49.2780038426189
-16.992817882726513 -14.374017163926947 48.76283902144393
-14.751883655873712 -12.197535504896798 48.34527978154103
-13.162247871802617 -9.43638923137624 47.45046908820602
-9.381382550206485 -6.89533824490217 48.50655357397825
-5.14143642205809 -4.9235593782008396 49.16864081178078
-2.3330328719702154 -4.550428668536301 51.62486023095613
-0.3528909590762284 -3.3126751947181616 53.10037297322181
-0.7376881888916369 -2.580746667632487 54.55429120804396
0.37979406421638073 -0.6767518535319965 55.891287546141605
0.2813749583404158 -1.2144376896408915 51.572383571255635
1.660625473927431 -0.16744351450622239 47.52060982356935
4.539199330721777 -1.2398283258241984 43.19544688581938
8.716001494092472 1.1520474628776185 41.45979098807855
10.15186226419251 1.8524070595458682 40.10923140377872
13.290457226900246 2.2843812141464537 39.506209464944455
16.11317943291167 3.758702924669143 37.79137230671643
20.737849714195622 5.0690834397684155 38.440176669700975
25.516089288415895 5.662356167302268 38.992443953973414
28.132308420671535 5.865798923500785 41.8004206714455
30.268868455556778 6.6973180643072565 43.304674669077976
29.940159434308033 7.696856761335988 44.89702726491342
31.698601170756888 9.312937639181218 45.64456160831024
29.967796919552164 8.22637859133834 46.28736356319512
31.46908608338148 8.351502806074429 41.55780760889196
32.375993323241644 8.0678504144023 38.53137323304341
33.012038594835985 9.019976973421706 36.966477796548894
35.57690278961418 8.019104597727306 32.19932337047496
39.687978430818475 10.066625166595367 30.193657864093854
40.86834795613637 10.677825408505447 28.755288124335827
44.06207897426319 11.145625510618345 28.025544554936083
46.39920643733636 12.63644412204664 26.471484159368465
48.477931100464744 12.672383691500286 26.43986083855159
47.94915354984592 12.00805747971529 28.47395355708888
44.96912594075991 11.993714212713892 25.777976278977466
43.29450353014 11.146551405329548 23.383981574242885
40.14808353543126 9.500660547618748 19.440345783917106
41.920357281704185 9.16868764947975 17.07123304875099
41.4210834234029 8.822866509194895 13.20586471559099
36.36178749226777 7.2200498216862234 8.229790049424714
33.457633170155795 6.667196530647658 7.449272797460373
29.68313343451633 6.953780594009268 4.807091219588663
25.85104936428151 7.086221115723258 4.595580759216742
23.8300560936141 6.366997290502638 6.649682991977591
20.307534281259695 5.741307992868919 7.0109417320680825
16.969599470282745 4.918269146798296 8.327664906744014
14.797307693181695 3.5480365307471495 10.094724506680485
10.502910331445518 1.834236305424495 10.991919982481209
7.652091602782844 1.2349722908422318 13.588036341409316
7.589077389395095 0.9570642816676639 16.612316354286286
7.760984011477056 0.23460973744714883 19.0277842295295
6.090267762250645 -0.22295187411607742 21.358716887309406
6.8588522997404295 0.4585265646604121 25.155790978059777
10.09936358202911 1.3820687481900933 28.27593874280837
10.809521414680104 1.070651853752748 30.272643047999196
9.49957409950031 1.4067041715441728 34.54159767028916
8.801390901675388 0.9249472268095701 37.81484831903329
5.013982357645423 0.9228118104179666 44.36631140572515
-1.4302796404241127 -2.324469020805651 48.009316113637695
-3.4794303857658178 -4.071234987117583 49.226005548975586
-8.275396580427751 -8.613768678016038 49.431310924964535
-14.524659987255118 -10.539163728693012 46.422113599211464
-16.255739849905037 -11.654042963695419 44.12000053490736
-21.557817110759082 -12.944358982735903 38.4968845707903
-23.247999715407524 -11.559167504525698 30.37938411964739
-24.731846039548063 -10.82149087401045 25.7903467183261
-22.26368746316936 -9.521240127300786 23.04161155526312
-18.403513393098397 -7.297782372071751 22.177063544994233
-17.411627790515066 -5.906792506867016 20.911401150269175
-16.434894126656516 -4.612273844040743 16.155733530469885
-15.707386028545754 -3.658588275897889 12.761959691044654
-14.167405368407959 -2.689293196930123 10.470166276435513
-14.82190718377971 -2.246357204423674 8.44032222683408
-17.26453662635473 -2.802787663336531 6.950237922023098
-18.090502909958747 -3.2806120157670677 3.1222183455891
-16.738839510404336 -2.729579635473641 -1.1849385272300672
-17.28135613089739 -2.0366931296910686 -2.9585202338968988
-16.755077123529485 -1.9809886299671973 -5.234609823267004
-15.874089025664817 -0.441727149880838 -6.357193923393068
-14.594546235002342 0.7331863815623307 -10.605155923817263
-11.749354636547222 1.9008163972875707 -12.896301737180508
-8.438103431224857 4.088247220290666 -12.752035636793424
-3.877852989769439 4.394737092462677 -14.409369417716926
0.09717591959510868 4.637725928961127 -14.606993274091835
3.9689785349989335 4.267562877952509 -16.875936039478546
10.852809743622704 3.8189506854247783 -13.948426070765091
16.0562506049841 4.73796722184438 -9.839090166531905
16.99934288857397 4.59654527216 -6.7889903489971966
15.788289649363213 4.9230086696935444 -2.941395068614917
18.50098267767262 5.273471548512305 -1.3172832177716252
19.533135502008342 5.538345993517983 1.4148246967346099
22.93276463546096 6.698016265078755 3.93367539866488
28.028803268460802 6.421639703531308 6.86169169888856
30.939217524738538 6.553677247866119 7.460204245879452
35.681698097818455 7.381362788360417 5.453706468036166
38.2510538341744 7.031644880071548 4.100976947456292
40.46775237357332 6.446053813630233 2.5300927612319195
45.19867297067443 7.275005351853661 0.44542330234979144
46.387625266338844 6.68834732237427 -4.336152338127229
48.070218341539324 6.804144485653986 -6.80709878995028
48.55121150355789 7.029653486303336 -9.92031640149
49.84771576937445 6.876124958156953 -12.327473095475742
48.43273971490423 6.978127218455918 -16.855835822058058
46.98919446914635 7.800034041602146 -21.3676747682315
44.46724189782484 8.378195051106598 -22.57309190778067
41.623315077766236 8.148467805238562 -23.975227795950005
39.17656619395331 7.546190132535391 -25.258953126365494
34.46174079519031 8.836230068247485 -27.979553093376374
28.023132147501563 6.472419113955874 -27.927451418902585
23.977741451164718 6.009436370977989 -26.46442545557082
21.336769512028436 4.979244108719243 -27.099038867718868
19.56336875415453 4.700036409301581 -25.291123752249895
18.28640856237941 4.987408802333115 -20.473590538394106
16.295603838740043 4.136693990857348 -18.23224164432203
12.341637729200745 3.6385955309766076 -17.949293776684968
9.739958940507927 3.1897955597170324 -16.734086288878068
3.90966156322542 4.3093036197374035 -14.434825360440431
-3.113400074077399 4.740672396105654 -17.16404456315424
-6.252738482288419 4.316013523085468 -18.349358248666892
-6.62588512282174 4.817814224559214 -20.303700346880323
-9.641668547735929 4.224763941588089 -22.53541922476868
-8.536934770038567 4.1838009432756 -25.868662516966985
-9.381604302733415 4.164133508731579 -29.179547506609236
-10.438860468544037 4.672452679285773 -31.648499644480825
-13.038774342242903 4.086725413537732 -32.97602933300856
-15.517231319295684 2.9829552375178707 -34.413075632788285
-17.867922774116938 1.814173792793137 -35.62593008562777
-20.533322095955565 2.463902356127603 -37.86999350406225
-24.310812883143058 1.4148522170362179 -38.57490991695141
-27.151996392088087 -0.2652836655401586 -37.04271119812128
-30.014420722172535 -0.9221673942190048 -37.02822463346993
-32.92041381608652 -1.8860422806001982 -36.00953816388124
-35.60927594543174 -2.9138267194496903 -36.110105342460855
-38.37525579510893 -3.743030248698446 -33.55724119343567
-39.25680297710345 -3.84327839056769 -29.698004295772215
-41.17857371189663 -4.398226182954082 -27.474960812530387
-41.90309190672349 -4.7773245600864795 -24.509272335611573
-43.41802149778346 -6.003943220326519 -22.292062218228956
-42.3009303267431 -6.293029400813504 -16.876062217895317
-38.8449961238887 -6.4309799823868445 -11.949717849285939
-37.608457396065326 -6.413180134644777 -9.548321560990045
-34.35258879369501 -5.675020810088708 -7.284823708137108
-27.56099485445034 -5.472693947423877 -4.277797236392766
-24.03768814424232 -4.07627576340559 -3.5489992552462515
-21.98899527358693 -2.6240332525212295 -5.327133102900898
-19.459337619028112 -1.888992231537145 -6.614495110964896
-17.099024723218232 -1.1613620920199235 -8.169210420555954
-12.996387963705363 0.9224036930070023 -8.714803406213578
-10.71484505588923 2.8896705139860237 -11.077137385432378
-9.63159077173243 3.537821960159285 -15.719326295198348
-8.743105358274788 4.127396134830708 -19.680202626277005
-7.5830990547865085 4.496452600052078 -23.264749958422676
-10.236020837861595 4.369113518646809 -25.486273025393526
-11.589658494569692 4.330466444612597 -28.210250740790975
-12.279594289092346 3.750564319461129 -30.98630632823046
-11.101131559353648 4.696405422341735 -34.53405417090752
-10.633976879591216 5.056118647340503 -37.36248102418723
-10.002960462518992 6.596868810076917 -38.54768914551013
-8.295532510933613 7.766145486045929 -43.588918246659496
-3.907477902525966 10.037250383018506 -45.20513471031528
-2.4862771822693412 11.009965211368154 -46.44699525526125
1.4042831795730155 10.891527538772928 -47.56756997081684
3.3838883333239065 11.98015386260964 -49.27645841393671
8.287399058357343 11.62833342948218 -48.84153043259179
12.98908962030164 10.666414866877801 -48.7468826045776
15.4227176835462 9.16251547670971 -46.34562206604501
17.854767297852312 8.062430300094894 -45.016860571610096
18.94518939656138 8.721756835435807 -43.34623299279783
22.656297735736942 6.8881210983140635 -39.499100005667245
22.622347626868514 7.096546569463456 -34.22631116215826
23.16297561475219 7.356880233303372 -32.44208903014082
22.335013359707958 6.316237767010671 -29.31522367713229
22.280052090474147 6.553640722271956 -25.562725341360846
21.14590331860949 5.855332826913582 -23.83031069185591
16.690944871022023 4.067723217907328 -22.122403538795695
14.558963436961934 4.051069723878953 -19.87097715712483
14.996038712538187 3.870494190468861 -14.3336939327425
14.002039518471209 3.919003707272465 -9.2483065678868
14.801242711093307 4.442854151770253 -6.211460184779454
17.606085596871477 4.789343112673549 -4.1718665699593425
16.38591345872953 4.722875872044071 -0.7014832863697016
16.849374142274467 5.488149308673428 1.0576869503629276
15.774098910745938 4.049959002317689 5.370838055327408
13.229547597405942 3.3417930817656063 8.461246141437583
11.896253973064754 2.698157679135725 12.784525112347078
9.250347846825123 1.1782660052403837 15.221842536386424
5.497170439056402 0.5018217836568668 15.31052774611358
2.8192466084439634 -0.28818009770103953 16.30986379792208
0.6335900826717039 0.1320288615368478 16.63372432246609
-3.177029148407192 -1.264212915276614 18.53645075074224
-7.034741255529124 -2.2702463375291493 17.824373747420836
-10.353656182115786 -1.231011324506585 15.46048999510804
-13.40759670830319 -1.9677205551887094 13.063959586724733
-16.192861183884464 -3.441013519239931 9.388511406123406
-15.103388468039444 -2.9403338599030633 6.459609124310766
-15.956974635550797 -2.3772375156571353 2.61126188673676
-18.905262227785062 -2.679590833548829 -0.6876605023912609
-21.4989532890877 -3.5555655116894167 -2.830001935385395
-27.74550593307688 -4.239164591043912 -6.322605003668616
-34.912285679808676 -8.183713348552558 -5.617281580071057
-38.11971183819551 -10.494508333507989 -5.033624868766503
-40.38799674717397 -12.069972287155958 -5.378350918896381
-42.37743437929442 -14.165640710795252 -3.0066845661702115
-42.58151959492636 -15.374377013087155 0.8012193918579336
-43.909677209113646 -16.933108717669274 2.850938972683135
-44.45765354837535 -18.065372528147144 6.148255379104335
-43.87012271316254 -19.018821591807296 8.855761004825522
-44.76446208137697 -19.579417823957474 13.937559006471437
-41.55569198513053 -19.146928141865686 17.907266904905743
-40.55061672436134 -18.8906517509937 20.605013695043244
-38.645840491563206 -18.16640227331509 22.985435289073425
-37.31103518815022 -18.508574841377385 25.556678352911085
-33.235114234047465 -17.009791711212713 27.42793633256784
-29.32151414050718 -14.909069146067262 29.33372304996182
-27.409134845836185 -13.241359618829796 28.086012560211866
-25.447365991208528 -12.333552148776562 26.79243872598981
-22.95350578378366 -10.919699165980134 27.231932659996012
-20.864864028633455 -8.638179985926582 24.878636872001735
-20.13865702489706 -7.303008771766571 20.6268042144629
-18.66275853118248 -6.818540366843645 19.187522687126044
-15.389613231725722 -4.465541935870306 18.439464437841217
-10.923315139017632 -3.324744043007204 17.637414423169982
-2.9567970723648025 -0.438948325072626 16.224660452608763
3.997638120239477 0.044263515740498506 19.480283026793842
7.976369562174324 0.9708599378466687 20.841792873723172
9.257027384335785 0.6414807842747621 24.540333601020457
8.10008600231745 0.2972373851501686 28.89329970326684
8.533573386897684 1.1067621853798641 30.666536076407315
11.118026704532266 1.9587494911931174 32.179081029423266
12.23318758836625 1.8773829408619445 34.34033837279936
14.663634903634216 2.449968353711862 36.8386462693342
16.252068998123754 2.2936321845666896 39.257146272079815
20.90598200460473 3.3240192144611957 40.15785907942236
25.378512485331953 5.08577922842314 41.10981812321101
27.211613259893976 6.573262157966255 39.40573064717504
29.92847970270687 7.0694222928387545 37.48105350541964
32.26707971206841 7.293772721123484 35.851176201603266
36.300804313150294 10.029264731571518 33.390606647468175
38.29984880576127 9.500206484069139 28.71853506764382
39.890576875060106 10.052656868143181 26.29780204011855
40.71469271660717 9.978012473669631 23.246626526081943
42.196431486103975 10.241634149774342 18.832869082250262
39.791027354068035 9.774644160985915 17.35902475826473
39.122801349842796 8.438701178812131 13.769427637747613
40.19455752653792 7.837916759276965 8.041167663829775
40.88333969703763 6.807597674659365 5.535774428714314
41.93515277995077 7.451162425799812 3.916944830780823
43.62891095540276 6.15258097519331 -1.0748232457759213
48.004957438905805 6.604027160619836 -2.775976434633073
49.38380584954307 7.077666467448002 -4.3655134101782505
52.01804209936259 6.645766927249991 -5.329842950367806
54.692183267558136 7.669360058222821 -6.836619195054362
56.29083508021496 6.997406084359824 -6.892730090824863
55.93412317270753 5.93857485060459 -5.426128036057962
53.148668986646726 7.542954267308336 -7.571179725604455
51.26160559863165 7.43970180818325 -9.92357276010705
48.47633594884367 8.015141374640763 -11.718811746898204
46.77028445651875 8.335164609063577 -16.145636420702644
45.06813959889891 7.975217656999727 -20.609895211795074
46.066123116517815 8.06849479753782 -24.342213039493437
46.953605076094355 9.6264217634506 -27.61042116162219
46.74215672608618 10.89586001107313 -29.89148893538307
48.25148094176923 10.350228082230029 -28.54122207280779
43.64769236571941 9.564379044678294 -27.411978103455446
41.16768670716469 8.8332940281851 -26.83421279479773
39.209245887263556 9.244865208838073 -26.645790682490404
34.110041277233705 6.748761579185341 -26.6525716150171
28.379482631620586 7.6016435825603 -29.704435420272667
26.11097204994969 7.215121699837975 -32.369401304436266
20.591786833910582 8.55416890668535 -39.08815696935717
19.817283419951217 9.1177443691262 -49.52658463346669
20.944705821197356 10.1216192075386 -50.33921757542323
20.911339424101282 11.802206337149045 -52.224512387573846
17.581266004771557 10.607534620111402 -49.735830502995995
14.863760101738853 10.303286355166136 -48.896988560272135
7.76534237620731 9.537479415858149 -47.84217939845115
1.6503296393715077 11.872981493890876 -49.86970728692652
-0.5420774052637595 12.337478933050784 -51.680152384611844
-3.4967580545910866 13.614377954889946 -52.64237949558556
-3.1948256234357832 12.974881861952335 -51.10604542378209
-4.092461526765701 11.61864128589873 -48.53297363349109
-6.994084202279512 8.816046066889516 -41.687724150997276
-13.436710581058042 4.693328254817965 -38.258163014180916
-15.826125204541734 3.1096851576487383 -37.481029041148375
-17.897946628820616 3.2086109734037223 -37.35345195865353
-22.54320216852239 0.25703054146516247 -36.433755890051934
-26.768671982427804 -0.049238911272408356 -39.088253611620196
-28.808796250392238 -0.2755901030110029 -39.47297933125011
-30.956568286346652 -0.9987375534771502 -41.48094237207651
-33.716821600039076 -0.5385564885677496 -42.71246456685798
-32.828001784017495 -1.6867216399993765 -44.86830544148671
-33.48768560852403 -0.8264117343308612 -41.09033120393571
-34.40930595752275 -1.582134527027245 -38.331990331877016
-34.661008026715855 -1.64282875481818 -34.898667649498854
-36.79571125328307 -3.1356270555452603 -32.067213917806484
-40.402955607440795 -5.122985382121669 -31.01258343634303
-43.00577683941673 -6.500676168838423 -28.175384684627236
-45.55933813297663 -7.808191251643888 -26.448055081572402
-49.097060012539394 -7.261877125968266 -25.421747698005156
-47.54270683247259 -6.7445011985815695 -25.102139202765475
-32.431427779829576 -1.6735113359796343 -43.37318972496067
-5.581954689689883 10.415171206380837 -46.3975066551212
2.9881827703960195 10.047294041081443 -48.25148054357693
12.589827607746516 9.600264721910131 -46.89405336246941
19.302215887883282 11.010991874846553 -51.4231790929249
20.709064730651924 7.50935533906546 -44.13862514662558
24.491326153818726 7.325835235168375 -35.06958983318826
45.53003528143174 10.061978339596104 -29.032207279180962
54.4799313637936 6.115794265834023 -5.853579542561788
0.2521679451675679 -1.1750314593536615 18.786431715306882
-6.924890503764236 -0.9145792732573577 16.254135143304264
-31.38930943079393 -6.288226377968139 -4.835845991008401
-23.928029905918635 -3.484509838106798 -5.7328666742021275
0.007397055227245948 4.16857214754621 -16.828818861984857
7.888272131921764 4.222412944716628 -14.457240009688391
33.580943997962436 7.412626922460144 5.313755930697025
25.61417697066105 5.984553949234242 6.695456589138184
-21.702500905888247 -12.19216549090316 33.1547320187466
-12.263345853786836 -10.880872690761754 48.21643610975009
1.056810844891536 -2.0689970565155043 46.45052247012065
7.326184039491989 0.34600074420497434 39.9396007442039
31.820490453311436 8.672063297323954 43.99240373049579
0.6149609155582632 -1.037645162548415 54.07596091856704
-17.68054832520163 -16.57589259364134 48.540267839812174
-43.62212871043998 -22.941549707492975 24.845732142352567
-49.037191251150375 -22.58906754973547 3.900215424544813