-47.029100212892764 -7.615318566422928 -26.830421415927848
-45.36509430838002 -6.311918725669145 -24.202967818630235
-41.688416889875356 -4.816986736130346 -22.816572507134897
-39.94447910878262 -5.971636447825052 -17.6962133408243
-39.98238120937944 -8.180431007164975 -9.831420437125336
-40.06361417935506 -9.895478282023571 -7.243710015052758
-40.880075593473954 -13.431557965873171 -1.3993745354607194
-43.723379306993024 -16.408446348800304 -0.528483642969467
-45.05746837277849 -19.062599271272717 1.469561629958349
-47.18132950437064 -21.416374538920035 2.7579848378247287
-48.51128450613184 -22.251649454300736 2.056929684706586
-50.23402679627214 -23.538271548618773 3.0900930518690255
-49.788675521317046 -23.082792569287392 1.2608166396055946
-47.63964317914873 -20.9002247680898 5.244256843637357
-46.29063953596195 -19.765014079845308 7.159903117805626
-45.86766734316163 -19.537444535546367 9.21955368657128
-42.451017415406156 -19.512936363999806 13.426048297817214
-43.19029469299132 -20.10724385351603 18.229274667072325
-43.09029755401301 -21.55972655662563 22.687855227525645
-43.282864845680315 -21.788668889306358 25.959015325538093
-44.094909247567045 -22.81263171631649 27.167449893186802
-44.85187570378705 -23.7046339286013 25.507021608232744
-42.438736985498146 -20.935499269903467 25.329425498027867
-40.045508230282024 -19.186606370759478 25.17121407687681
-33.975366397964095 -15.206912504166908 25.848618889430302
-29.08155224717721 -13.806176763100888 27.488543878076165
-26.776465129484848 -14.09844161002253 30.44416974337567
-24.433355497293277 -13.269422649591434 32.26325086262879
-23.647836876927602 -13.059850829054762 33.90331848370847
-19.3779273720638 -12.362846804403887 37.50518454761818
-19.051056427823582 -13.311969206752877 42.321168499638475
-18.221005628653906 -13.729779302764864 43.83918405949068
-17.81189717484165 -15.016154420028597 46.4693897493726
-18.612753962497973 -17.620046931428316 49.255610422496396
-16.708358894084196 -14.45768203995127 48.86682416916064
-14.789609650198049 -12.205969013406877 48.332026966517766
-12.949489287637755 -9.556963724161937 47.217670413119414
-9.429809140022602 -6.927930929734627 48.49992500311969
-5.245790808538437 -4.81018581898122 49.35791691443279
-2.3557959792052054 -4.602232593080262 51.62411330467901
-0.5847432352365729 -3.1506842548998293 53.0294691245678
-0.526472834539422 -2.668463201663035 54.56915857579599
0.7218308539720055 -0.6376625011832147 55.815030147719895
0.2969505688432376 -1.1833836426596065 51.62727629562994
1.843576592869095 -0.35263644221647894 47.623427506986985
4.495385003392498 -1.254770141347087 43.23049895140687
8.527945971681046 1.4180599175704458 41.2926203512997
10.229070963324501 1.6218556081739355 40.24726320412275
13.254417826121813 2.2937176918211124 39.485118212419735
16.253144172032464 3.4593792052988532 37.63300054042558
20.681531419138118 5.053914627300724 38.43665860915379
25.4546034483489 5.8916670357692835 39.1267701458878
28.089275424347072 5.826787931341974 41.806116076491016
30.09810161950407 6.919579505132054 43.192078543122314
30.208909611504044 7.57258498697347 44.89581666056874
31.943194080695736 9.169782933159672 45.60717337902473
30.215230186174985 8.105233756381812 46.330723404419885
31.517821162061928 8.429802343655094 41.59385854521155
32.13225427892534 8.372419629274475 38.50195847576654
33.17414201480244 8.821969708024378 37.05698777757579
35.534967042066555 8.007206653496848 32.23924814777119
39.52931528580122 10.353955960699404 30.05241613326545
40.98822187739184 10.45303222198354 28.971561001943833
44.05043650234915 11.136208975813215 28.042844293681547
46.50955461250965 12.323507830354487 26.354054237079193
48.34000180908727 12.847424017736273 26.72922349649338
47.862188313857914 12.226012886450485 28.652002885848976
45.12725661420968 11.812219523396815 25.68859961984789
43.28703848811034 11.154734984441836 23.421973941147893
40.121432136374665 9.722905141438812 19.473608872175024
41.88483599384318 9.551488484829363 17.019311869574604
41.4412931044576 8.740538982544425 13.262878549989122
36.44140068627341 7.2583369594075515 8.164736864317895
33.44005770937025 6.936579087748318 7.488321902903071
29.73557513496419 7.063865747834181 4.826176047568031
25.883104229276938 6.820946596276225 4.539628168118049
23.942908608178946 6.000892476004303 6.50069496632178
20.33708833451728 5.635692486337902 6.886927266619768
17.03249118740141 4.936969780963409 8.298332041696987
14.663459819130802 3.7950110618038813 10.07718728771161
10.500949434523374 1.9511796265370758 10.953439004563158
7.7430488326944165 0.9726483617913052 13.584364290562165
7.823787566813065 0.6729721917580378 16.596395953490877
7.656470168989646 0.4971473015995305 18.98636187832469
6.0149469499784 0.1858035466636636 21.324791114181583
6.8622599206531385 0.3599678805790314 25.121781885000217
10.13656191661657 0.9740125079886539 28.26692094575485
10.745010206996001 1.2811856343483652 30.1883492385186
9.538614241236619 1.1284546865429708 34.53342449333878
8.798471796291714 0.9114786631265048 37.783335283344194
5.050271977083712 0.9312263675290231 44.32430135451871
-1.3934687939562598 -2.3383233783737296 47.950809588711635
-3.5319680974281313 -3.919740142143303 49.51951934330397
-8.223235094068276 -8.60650768741517 49.46295049953154
-14.309129242352313 -10.606444051631778 46.29276329324955
-16.25638753302113 -11.65437023739863 44.159958947222684
-21.51436082261154 -12.920539979498875 38.54170640379088
-23.19963582289285 -11.546445242082536 30.435917762902967
-24.53541126648406 -11.172476335784296 25.765245547657873
-22.34047826624324 -9.460869655217959 23.080640708100947
-18.64201280209392 -6.984052820097382 22.234952133260048
-17.353115045037747 -6.126802881200766 20.93244286023191
-16.4286418515551 -4.5562025283834755 16.218819564320146
-15.770677836365914 -3.3957852811230445 12.834755859130986
-14.341218544556662 -2.3447483488040817 10.523839990451265
-14.723158366822089 -2.4427475835987105 8.505480316222885
-17.147305192848915 -3.1840046623935123 6.97467288766564
-18.110365235258314 -3.1917567085956176 3.165178032736935
-16.857945489197302 -2.3655648362919948 -1.1170238345582824
-17.14136890541511 -2.281042617122779 -2.9409850141244394
-16.98385915515619 -1.7114102109975646 -5.176132436309109
-15.761339291354039 -0.6937036988631746 -6.403559558836837
-14.593765566884368 0.6085362708948726 -10.583485797287581
-11.877397059916207 2.1453386661531035 -12.877277867172886
-8.494950589069797 4.0699738358161035 -12.726555818160092
-3.9188571389455142 4.503333788586781 -14.42712330441521
0.07278311191113744 4.369041455293863 -14.63696139035507
3.900004545733325 4.160420889488807 -16.871604704101717
10.780455507475493 3.828682727957829 -13.928782221718738
16.05175760636246 4.734059879158038 -9.902271664815714
16.91037188805263 4.858200204716269 -6.78823882297102
15.700140264331353 4.794106448079724 -2.947413028766562
18.457734252555003 4.872921606140025 -1.2995595329832959
19.577808449932935 5.525202807448747 1.370484959988161
22.87508445880114 6.689137664606699 3.904321948690691
27.95087481019087 6.631351654056682 7.047573904318948
30.875961710847047 6.644809105094282 7.323290990708525
35.61235309481138 7.042384498586398 5.376154786907557
38.22373195955373 7.042787048440419 4.165813001083455
40.44651120072437 6.70529720210548 2.464771316788545
45.16931221530156 7.277288678488097 0.48598287798000134
46.53934490919907 6.34410179549068 -4.233491029837439
48.04026246653393 6.791888256635525 -6.790928725249343
48.64993172188843 7.2542513184122726 -9.831641099961777
49.93820465528173 7.183680956225322 -12.384858723297935
48.44574011743456 6.976208846875541 -16.801144716142396
46.899957681470596 7.562216426591651 -21.356386615814
44.338448253564636 8.086555493790666 -22.448121259235656
41.69100928765337 8.183170965378554 -23.977684575606247
39.10440827286823 7.752505932435331 -25.101134645905073
34.517995162131406 8.842742908354337 -27.969275036822204
28.06490276360582 6.708350682756776 -27.669822790149578
23.850519386421695 6.292864243664309 -26.643051230326165
21.187385715777832 5.385384058864055 -27.032130646451986
19.770489285722558 4.549803814465081 -25.259356274414646
18.324249114902692 5.002205561364168 -20.502941961517624
16.20394362508926 4.403937174537418 -18.26965059225112
12.360935918403538 3.6333307538086443 -18.009541935629265
9.841376517456617 3.5356397390086953 -16.704833027498033
3.9606680745853438 4.196354268648003 -14.43843639518458
-3.065794561834646 4.74345173414136 -17.137856824873747
-6.140193941012915 4.686329671015017 -18.413207209933088
-6.572530161216098 4.4895783706187045 -20.21418110443868
-9.652249779638305 4.231463101079117 -22.492005584382476
-8.5185548383478 4.524136569653621 -25.871383031962004
-9.437753955842886 4.160423398643679 -29.084715851615815
-10.387710656672725 4.412252320957364 -31.666758223523107
-12.992669710929466 3.7504449000449824 -32.88487876518161
-15.421833105603689 3.0854591592224168 -34.52027105196473
-17.976516156965296 2.0383304380661635 -35.52378968772045
-20.469757311996744 2.5257722654942762 -37.92702695284676
-24.263853084887852 1.426386092252965 -38.55214800101082
-27.084040119452613 -0.5810307204322044 -37.184584590879474
-29.979788611724086 -0.9295538555179648 -37.01313029149521
-32.95843091163277 -1.632840133202502 -36.071560658255585
-35.76459374869183 -2.621958637233888 -36.10123067748121
-38.31153895071596 -3.8157179120639277 -33.58149484519378
-39.21174840430765 -4.201471621824133 -29.727199253787507
-41.14287748424901 -4.392849038034489 -27.49699212030354
-42.05888343753487 -4.545957946113869 -24.515301866417705
-43.543447780639184 -5.620361529917332 -22.279667629452423
-42.30715896438774 -6.345898209252562 -16.923892244992683
-38.64130089557456 -6.765463710504356 -12.016794354013207
-37.60709026812967 -6.418107404105657 -9.589408561564603
-34.40412657177691 -5.679978416108298 -7.315680354677232
-27.652449484659982 -5.4057858963534535 -4.22910991112251
-23.958671245288098 -4.296143802123562 -3.682915977421803
-21.99293900598472 -2.9258458716819917 -5.532462652557677
-19.488334640384185 -1.9137282829621511 -6.5519225204644105
-17.196856980333603 -0.9095200356694875 -8.106764832548484
-13.08713525318812 0.9968430200146334 -8.663591027423957
-10.58682104095576 2.6449884546299196 -11.099086601249008
-9.59540934163019 3.421096840866246 -15.696557274526795
-8.694638518278392 4.397323756555228 -19.681033359567326
-7.54950015135914 4.493202560878117 -23.2357464535815
-10.419049230449556 4.08804720589211 -25.38620495439548
-11.546196496165013 4.340226425070102 -28.152727830112916
-12.33981100837513 4.009912118831096 -30.982694351334384
-11.060095672847506 4.701404582687152 -34.47861428850754
-10.884251445098474 5.29164224007904 -37.26105791048884
-9.862669628398418 6.367385456068618 -38.6123959470503
-8.33358496108789 7.744023921204563 -43.555465727099104
-4.01284882302101 10.381940131815474 -45.15908782714858
-2.475001025245621 10.740603969894542 -46.449997856740595
1.3067033438918985 10.705797120301881 -47.74417420075272
3.4173326566817406 11.633522260414978 -49.4711497726068
8.230354371944276 11.631431967778145 -48.84107648496456
12.994951888198074 10.84684976966445 -48.53999477673798
15.347081416047596 9.132405127763437 -46.35741261677196
17.971420779263475 8.363459683525628 -45.141443390752364
18.857054645654433 8.455781226156716 -43.32462699915473
22.639768089381313 6.894444865300833 -39.55680147492457
22.66954732457573 7.512856529918906 -34.13650017240654
22.959406313055354 7.078204181200033 -32.52264421035623
22.364601921455236 6.341370802041772 -29.3270259628874
22.423885638158815 6.206443935963375 -25.47297404578126
21.047944287747644 6.126326534340403 -23.948392199491135
16.729548652059005 4.073715432181313 -22.169619148019617
14.639967948395736 3.7766549633540287 -19.846260416538307
14.85357027894238 4.118166559930984 -14.402962221600534
13.970850206598506 3.9182317037862773 -9.302701225774712
14.884770539358291 4.180582432409087 -6.213267351093685
17.737965140101785 4.768055333531073 -4.2528802066239395
16.42005622483477 5.11409919960218 -0.8074689378811477
16.742295678465656 5.227386160747372 1.0304693866576542
15.76929149864968 4.16898103370003 5.357208843353367
13.352296137985936 3.096037223863121 8.465459952876378
11.987677125263778 2.616252671600303 12.751860496324353
9.140553903949172 1.436737193558154 15.220732783420011
5.494646932043692 0.5272007968853403 15.198539198741408
2.8814538297518166 -0.05477214592113929 16.53160841305193
0.6663197959456651 -0.1352644195812284 16.56869101870782
-3.094835743087547 -1.3312123421386681 18.47911135474404
-7.092115355191004 -2.0231275417318195 17.947837565888026
-10.290105542473716 -1.231552827024791 15.437784442201812
-13.41460179567636 -1.9637571123524666 13.098930485834531
-16.547981216486054 -3.320024991643642 9.54352408683696
-15.217276839407555 -2.5691932303370706 6.507651385515778
-15.918866395062373 -2.4647704964351096 2.6466044696018742
-18.770302894473655 -3.0516996509045455 -0.6843877321501289
-21.422335181282406 -3.5137894481726923 -2.8950474768185277
-27.71974003608179 -4.135213114970964 -6.256452996612809
-34.822669274908385 -8.253250939062983 -5.647290222803446
-38.22842423399108 -10.252729408326138 -5.042077482059898
-40.63111755354291 -11.848034814099554 -5.294667175086561
-42.2986129434118 -14.208114841483145 -3.0494466529610134
-42.438565371283126 -15.682627033197825 0.6803664972597182
-43.876344639731556 -16.913241503529232 2.829121784606929
-44.56039931433636 -18.036584110908834 6.091269333653913
-43.9585021344781 -18.782998336685612 8.910004474053315
-44.78551041953475 -19.58059344248401 13.882864115475908
-41.43803195048987 -19.464093843329714 17.9192265344189
-40.54238730473186 -18.895602376435814 20.57186801233897
-38.85747209493996 -18.028651971051847 23.0615882772843
-37.45378548615436 -18.261948287811425 25.743491370174024
-33.282620754623636 -17.02958213269247 27.400035693657358
-29.212492838351505 -15.10605792100109 29.19424484091679
-27.386785519304578 -13.464723469915288 27.823015662417088
-25.611287376483943 -12.11458743974734 26.9134069440464
-23.191356668484516 -10.59760873571416 27.313090810637863
-20.836384382710673 -8.733854974694607 24.89272621694164
-19.936695288498154 -7.646657258773978 20.627469365142165
-18.81527552719228 -6.666192035964433 19.26491679895838
-15.144894450747083 -4.717647379796027 18.647921077146588
-10.999786978718445 -3.2323148169484366 17.656963027752468
-3.005136922221818 -0.5286436893144112 16.16029367250025
3.945083475476383 -0.1641055925859689 19.535590224480668
8.040472471188918 0.5694898953740335 20.80088318137766
9.230722687631209 0.7358003539547741 24.499022370110364
8.037726080149225 0.6992840249884082 28.83072436460795
8.487514187251955 0.8108859815912458 30.63106435612217
11.221164540668715 1.5606431624235384 32.15268198033859
12.158901376826206 1.9186648033286058 34.344596588837724
14.50096699864154 2.6571665201860433 36.914987473676014
16.19311816312608 2.621972447916181 39.41779026791176
20.853519429933502 3.3114727550200267 40.1449321172105
25.46505927175585 4.8621297376429125 40.97409999739455
27.25184212693427 6.199431391260262 39.25453360544324
29.896040711464728 7.0784764730259635 37.54474114068286
32.1179560628901 7.502627746514577 35.748490403892426
36.26627995766716 10.022021308212382 33.43566108748347
38.527337277245564 9.23458878076687 28.803410147285653
39.86780834972845 10.03057791376321 26.320638302852384
40.68845382340589 10.24721615653821 23.25618513337289
42.2507400183228 10.055502924344207 18.943201963311157
39.83983689881225 9.401494615252247 17.47835563118782
39.11533441639407 8.536937372282656 13.787968091898072
40.51361763349287 7.618039106234015 8.102771433499228
40.74621142318779 7.10947336712943 5.473266388645994
41.97808722444282 7.1962763741233715 3.9788773471407777
43.58655865268397 6.154207225831535 -1.0364728570401152
47.872122230512446 6.943095745770023 -2.9094693662218565
49.3613516437733 6.832067774773473 -4.342578662589738
52.00490610498979 6.667622651832565 -5.345798407656006
54.70991566396586 7.355087543721027 -7.036113453514475
56.278076092579774 7.2943314393965295 -6.742285627367893
55.955601821909546 6.133243143613481 -5.206609675168254
53.24205422019921 7.353278242353388 -7.714765083182589
51.26365866431206 7.446975936727186 -9.878436718042263
48.34750739378931 7.7070424804246445 -11.740218291061836
46.79483753897594 8.33206652123666 -16.093329392481873
45.1537661325498 8.20432184756127 -20.643687319686077
46.139815096860524 8.00687207470208 -24.31722399651288
47.0102399026866 9.36921057232521 -27.713785780920563
46.62661594028502 10.696662762010225 -30.062608769904784
48.19230699993283 10.179529767390425 -28.756363807373315
43.6716090904687 9.594763911318442 -27.45993392250051
41.20699064361429 9.060921725548742 -26.55597585311408
39.2579000334977 9.041514629195541 -26.81835488567096
34.151760747982664 6.764159645618484 -26.582483922933793
28.59801613082773 7.445663150102725 -30.009487040642295
26.078707710095802 7.2187439745389765 -32.29807452896648
20.65435863694591 8.514101833702485 -39.05612662888781
19.82660180471888 9.362687740110426 -49.338903657027245
20.87687528254536 9.945594717191929 -50.47978092238779
20.62131607914751 11.663477171849252 -52.509275488374875
17.582779715493793 10.692511029692803 -49.80276161233678
14.966363820450288 10.496522247956403 -48.58781721963707
7.820302649442821 9.529952575158218 -47.82865594676231
1.7269515963330582 11.67017233619005 -50.02721911222099
-0.5476165582247146 12.343138284226738 -51.64825699088096
-3.5999248240202806 13.267769757760682 -52.687040153404624
-3.3122727646990193 12.765082303556559 -51.18108944891017
-4.055682550323592 11.643278746734513 -48.54308462142929
-6.961695936975387 8.843140275352239 -41.730466298900595
-13.402816450223074 4.706964974543377 -38.33271047005452
-15.854411369616571 3.3898569391554703 -37.291983022300975
-17.80833021109343 2.980653580116799 -37.461187488016456
-22.487177198254674 0.27249979538378744 -36.4180760928709
-26.912902682797085 0.23937823991767004 -38.95903465494255
-28.675692463319873 -0.4891915750636476 -39.52839806894599
-30.932885563380417 -1.007514585083814 -41.47501908290748
-33.80963110977932 -0.8956792933780591 -42.690419033880936
-32.70750835993067 -1.415226055913098 -44.94122115531596
-33.60248098145091 -1.0530882659276273 -41.12582837801614
-34.37659455776788 -1.561392727271089 -38.354071384936006
-34.52256464170345 -1.9534540138208172 -34.86282594536833
-36.8105541207297 -3.039754634299255 -32.098455328446725
-40.501275058437734 -4.781776011259339 -30.932678221088842
-42.91736678971788 -6.557854858977748 -28.19172319385586
-45.52637853280713 -7.53683729034231 -26.47376041807138
-49.020891421483746 -7.450002308602239 -25.235815493941484
-47.53052748713671 -6.945301214950509 -24.99723140062871
-32.2389322489495 -1.3712087807112596 -43.45491014546688
-5.424237056556466 10.108910847838183 -46.50238581429816
3.067727758785044 10.383005826168151 -48.04530795750881
12.606127548707844 9.416479373331631 -47.086250031764784
19.366403391121015 11.16946766498289 -51.26861344368128
20.8085991140636 7.772768075942618 -44.13558776387282
24.3824583840942 6.969262421019908 -35.01838096196236
45.559719006580444 10.245532921191705 -28.89275389485016
54.474984851083306 6.311990373348095 -5.566202016056296
0.20893345255592932 -0.7979860945130071 18.658739687042758
-6.875302856912789 -1.0821486732892456 16.011764316277223
-31.28955335881528 -6.489203821988236 -4.9954387489764285
-23.99653981734834 -3.250658797118627 -5.602711459453548
0.025824877564736736 4.440386296517748 -16.832518849782225
7.865342915478757 3.949561726796759 -14.45435923552765
33.590502312597714 7.143231608533536 5.296092314438285
25.5773523238474 6.323042080181727 6.671990442321163
-21.90578122852001 -11.969921705341756 33.28451498321093
-12.40570125860982 -10.714885350310038 48.455618012596865
0.8875779371158942 -1.885050489455627 46.32470024755568
7.5819024645121385 0.09820689888693437 40.05186830190246
31.65046448528264 8.82686796803612 43.96361225679408
0.40002763684550463 -0.9442794432060803 54.06237148353938
-18.040132079360514 -16.535059172177984 48.41203321932299
-43.940306921616404 -22.839458857233325 24.6541307674472
-49.16039887759512 -22.41031712727784 3.8487943197962378