-7.991088535154047 -0.4041364859098515 -18.699042819502047
-5.1986013284717485 0.4351137420651814 -17.248003357522954
-4.726207003316858 1.474120984906012 -13.450643424821509
-2.5605271402648295 1.9005095685680737 -11.610557882377321
-3.1806673126690335 1.4265309500351768 -7.68275640428751
-1.3765679060866756 1.1328396581391662 -5.892268561834669
-1.993708625180562 0.6791535458224917 -1.7690926022108329
-0.2004577560043952 0.4748936222463958 0.27917427873547496
-1.004798466698686 -0.9546490760547239 3.980187339593698
0.6336960244867544 -1.7556748983302646 5.688241490108172
0.012674646129346446 -3.212120429733083 9.546493878157783
1.812355651992542 -4.15346408478048 11.39674937818446
3.2122965338501004 -8.35337379347896 14.556213177399464
7.573620071180416 -7.783613847138843 15.534320963369867
5.7603489395664225 -6.236900163966462 14.562184443060474
6.311980905239836 -4.81165045539431 10.934124967159484
4.521267656603718 -3.737079717756903 9.67116271304096
5.218511454483537 -2.008391195657675 5.774208800111505
3.564805966026994 -0.8611617049120807 3.8831880799991936
4.376588565854111 -0.604193303132453 -0.3244318669157695
2.647984377126784 0.03424366590329461 -1.9014167039884171
3.181148925941716 0.5221495912432785 -6.037587962448994
1.4190548898747668 1.1388761112671948 -7.800928124120593
-0.6557994838291663 0.5449517769188312 -13.808033515902652
-8.621888404493726 1.0218287150185295 -15.750953682789689
-10.279670610125605 3.781839773085894 -14.851266278691355
-8.335568312286409 3.5181573698367776 -13.342145558943571
-8.654246233959842 3.629366192123864 -9.226293684851832
-6.689945761491399 3.354691918952045 -7.224507011065256
-7.561738860101399 2.5439292025914684 -3.334228953858485
-5.818492846661884 2.171631105544248 -1.433897138380459
-6.4408818845908185 1.0764806591329878 2.409297326367067
-4.840453038166422 0.2213948967094386 4.434307282989092
-3.3550662013485484 -3.1459981901475333 10.28846306333735
-0.3203666145664581 -5.430611184297775 12.781671595545177
3.7840952577917735 -5.229505057002685 12.722947264609957
9.137365616166258 -7.0437256967841675 13.456600093814975
11.558929396048839 -4.660517159862168 12.83909699989133
9.910541312980365 -3.386862579292093 11.503442344328196
11.038290261351701 -2.875495553767073 7.700037302209189
9.37205876193321 -2.132452882881483 5.868966833282524
10.089064935420899 -1.0879695657247481 1.872852326717189
8.402062696212697 -0.35404107084065345 -0.170992578197513
7.033353316575682 -0.031829099872361356 -6.200108213787574
3.26601828160051 0.23257322776873698 -10.075210176104171
-6.3873947886665 2.593161164803285 -11.196004629412263
-11.777810818695263 4.28629872862169 -12.471186162925363
-13.184627538118272 6.693262303468445 -10.33363468102597
-11.580180056906562 6.125203875978052 -9.004785840423473
-12.523463298793855 5.810881074507368 -4.887795463540032
-10.888988676952286 4.933730919919204 -2.8093671726038068
-10.227234177530113 2.285153120172517 2.6757084811359833
-7.120971972364935 -0.48236379716525124 6.143334241353092
-3.0804934352283757 -0.8308135336995573 5.941804540747096
-1.5986591382199062 -2.027904669400544 7.621325933613122
2.527002093528868 -2.649147002829583 7.447494231361235
8.334662072364734 -3.1783352294012444 9.295942293691994
13.599477887754215 -3.9503673817054312 11.238234516221382
16.341787851402366 -1.656444479360154 9.823894996010315
14.72539327742414 -1.2628332127860582 8.075476859186104
13.909871194819782 -0.8362895536374093 2.049452158734815
10.515790556147783 -0.7474924892127061 -2.1615439721371317
6.519692319267139 -0.07954795248859153 -1.8963632975004714
4.885050339975829 0.1273470157037456 -3.874569516390771
0.687277793949732 0.4889562630834786 -3.707003367712332
-10.334093293051502 4.504010249381033 -6.809292582577516
-14.63348751768201 7.949280080440405 -8.49947154441028
-14.986544546241575 8.39299227345368 -4.287115886538118
-13.119219067216973 4.844828673572898 -1.0105232377201645
-9.315948459182223 3.6197701935562785 -1.2939892225789151
-7.942641776191535 2.2404438290313062 0.44961513299315214
-3.729990421095011 1.405410909444112 0.3662114126012668
-2.3264284216824773 0.06101578747064926 2.0101100127832936
1.5666233137732863 -0.3144214701884202 1.6699624951119907
7.434380611920844 -1.5153720643949617 3.5504811769235243
13.075081528413877 -1.354408651280759 5.763421301266238
18.500194822287412 -0.618648435563258 8.360020836023745
16.9800045883315 -1.1523920077147973 6.303805439432306
11.603662119828376 -1.4796997389286255 4.119787205667798
5.720000971669337 -1.3148571274416863 1.8781238944841903
-13.74130459547158 6.839188336832523 -7.1156683054122
-8.956441752205334 3.088144650786327 -5.2916024868188245
-3.707328152114487 1.501624994884477 -3.892008431900519
12.194958810902813 -3.813968562923622 9.619299019733692
6.788616097130608 -2.8894734697303273 7.731676120219177
-10.428156042360019 3.9139354645024835 -11.19448577804571
-4.691810680852909 1.6660683650585761 -9.64108132920839
7.75094770996719 -6.192736839225795 12.380015474568474
-6.7875608978730115 1.0506841762395542 -14.897693583169627
-7.7625134105671085 -0.1954071692629691 -18.559399618753535
-4.969085750641098 0.1376901346868469 -16.96030767614991
-4.2973912779954855 1.476591995763978 -13.37167840952915
-2.3237937526623185 1.5447901364041223 -11.374245723522051
-2.685741697299015 1.320228881571571 -7.616820879789792
-1.241613300807897 0.7286078748911581 -5.636373381540714
-1.6474093994036998 0.6850170344123444 -1.5775100146964671
0.03500350975621025 0.049476216161150895 0.40831237983267243
-0.5429286561380504 -1.092926861792132 4.026336365794318
0.7635107870045577 -2.2074510613828218 5.846247060729095
0.38527365722794055 -3.333751133879181 9.65189113734825
2.0403546508492827 -4.569865388241014 11.392635929556711
3.463135926709235 -8.54116491740041 14.650835277155013
7.106929453500693 -7.462442979963674 15.765611773531637
5.467977412862678 -6.410973490000659 14.232415356601344
5.8045429560442665 -4.717812592798775 10.90641537622681
4.405056681477297 -3.9362508136817524 9.111063310684244
4.842059167399991 -1.921778768224532 5.63294338666738
3.2577469359711984 -1.0924416783860476 3.5655413761936607
3.7909866743075753 -0.4007407527436598 -0.33481214634271544
2.4216440985580867 -0.2461885871313949 -2.2424496120369426
2.8075599225323242 0.5733116695167882 -6.172636538326022
1.1434848635832322 0.7112843675170549 -8.128838891647733
-0.9255757802022703 0.43248632781457913 -13.999558605247579
-8.734805941159044 1.103365244225168 -16.341699523764596
-9.669609092138625 3.8501724056257296 -14.898099344188504
-8.266940500894766 3.103946370067411 -13.109858211520333
-8.260948239512363 3.5334497120042596 -9.120948404334241
-6.525180267455721 2.919295668968915 -7.038858616166628
-7.09891732684522 2.4194339436504086 -3.2857247719393428
-5.722813212122186 1.7550736618061273 -1.1929554339252846
-6.158917129749134 0.8541869934193674 2.5334299497507593
-4.674290533207571 -0.22858143077665247 4.5389772103459975
-3.2156793718605647 -3.2984301671267056 10.5510989118298
-0.05064068648515102 -5.3446701035461555 13.166495938712288
3.781432836318218 -5.465850283247418 13.142691815757388
9.212002857933898 -6.853737708883561 14.138235810183005
11.15800320563055 -3.9564048680555324 12.96024621312056
9.54844606836761 -3.7802625934295278 11.230584661998487
10.561148806090612 -2.867455405598055 7.604573219035309
9.222949688297938 -2.384463289913804 5.48283292195925
9.734903013243423 -1.0780191803172698 1.7236882622290497
8.135011773613284 -0.6430716706566979 -0.46067900430017517
6.7861818602545085 -0.11223452376785857 -6.45617591597545
3.1027475053174562 0.6095756874706428 -10.33559268852494
-6.464541611176153 2.644757478375112 -11.589226295615276
-11.641059921690967 4.709572098799902 -13.039534300839515
-12.469311164271902 7.157389235000186 -10.019131179345067
-11.668502480152418 5.68374318247186 -8.847693494841202
-12.208093213816904 5.62519665223961 -4.777732395724387
-10.822786800304014 4.478746342457874 -2.6837118991446474
-10.067324214893052 2.016872665491213 2.8626413986652235
-6.847588195395617 -0.3075794733327537 6.512115302438929
-3.077773639877316 -0.9952177696390715 6.398797353584548
-1.2758307849261765 -1.8585053918207282 7.9580662163803595
2.6258836102585343 -2.7963738985172584 7.814047578528794
8.30638972505245 -3.335002595600586 9.78535431304465
13.569974927105346 -3.8545647733637907 11.84100819496581
15.78198626023517 -1.4824457934537951 9.745400946806146
14.573019886756725 -1.5942190664565765 7.780410047367035
13.705484045692662 -0.9323965987893302 1.7679461391467977
10.328587104215478 -0.35848490166857033 -2.385488133487108
6.513532356055127 0.0019267042302548998 -2.3802413081446403
4.648836214505242 0.5222729283744034 -4.057524900524172
0.569745773002444 0.5547777378739039 -4.1048538178863065
-10.372269012483397 4.655488175106894 -7.2113524512980565
-14.439922796692787 8.202632022006199 -9.0168070076264
-14.897702418480653 8.105470278029623 -4.0858186704870505
-12.813062589698164 4.952050730686085 -0.6639737973866531
-9.331407558059336 3.4922035750218976 -0.823051987688622
-7.571979341024787 2.3944272884321935 0.7325280399477663
-3.7307292289241367 1.097600978466308 0.7195333145554628
-2.0695428508791576 0.23554610428127393 2.405945989178832
1.5352137923229072 -0.3015649755667029 2.275256537482124
7.52030976607825 -1.6264698566052036 3.9291741225214625
13.070022825507301 -1.4409992914679344 6.254537565772392
18.70215111052831 -0.5733504314112571 8.586244569324942
16.74422490842211 -0.8229247061997736 6.072037224077629
11.313720225038733 -1.1322627337538929 3.960916106975894
5.5599402531925515 -0.897093253112632 1.6604741445195899
-13.382157012500151 6.973162534021364 -6.841802970230624
-8.647511271245465 3.278137634586389 -4.945680552914517
-3.207909776769658 1.7878424293013953 -3.6887754147881293
12.133321644418142 -3.271090547267913 9.385029807190351
6.524025519230475 -2.482616216105692 7.626407052260973
-10.091205912344307 4.202424270207026 -11.013752427265587
-4.407017057426178 1.93574344093963 -9.347477427395816
7.629220781643586 -5.734364901950785 12.353107129531054
-6.491430565497205 1.415701560884583 -14.860163213930065