-7.876800972860579 -0.29977182758641036 -18.629221219127793
-5.0838435395564225 0.286401938376014 -17.104155516836432
-4.511799140656171 1.4753564903349945 -13.41116091717533
-2.442160446463575 1.7226498524860974 -11.492401802949686
-2.933204504984025 1.3733799158033735 -7.649788642038651
-1.3090906034472862 0.9307237665151625 -5.764320971687692
-1.8205590122921318 0.6820852901174184 -1.6733013084536499
-0.08272712312409247 0.26218491920377324 0.3437433292840737
-0.7738635614183682 -1.0237879689234277 4.003261852694008
0.698603405745656 -1.9815629798565437 5.7672442754186335
0.1989741516786435 -3.272935781806131 9.599192507753015
1.9263551514209114 -4.361664736510746 11.394692653870585
3.3377162302796672 -8.447269355439685 14.603524227277239
7.340274762340557 -7.6230284135512605 15.649966368450752
5.614163176214552 -6.323936826983562 14.397299899830909
6.058261930642053 -4.764731524096542 10.920270171693147
4.4631621690405066 -3.8366652657193265 9.391113011862602
5.030285310941766 -1.965084981941104 5.703576093389442
3.4112764509990954 -0.9768016916490639 3.724364728096427
4.083787620080843 -0.5024670279380565 -0.32962200662924246
2.5348142378424345 -0.10597246061405015 -2.07193315801268
2.9943544242370193 0.5477306303800336 -6.105112250387508
1.2812698767289994 0.9250802393921252 -7.964883507884163
-0.7906876320157185 0.48871905236670493 -13.903796060575116
-8.678347172826381 1.062596979621849 -16.046326603277144
-9.974639851132112 3.8160060893558128 -14.874682811439929
-8.301254406590585 3.311051869952095 -13.226001885231952
-8.4575972367361 3.5814079520640636 -9.173621044593038
-6.607563014473557 3.136993793960481 -7.131682813615942
-7.330328093473307 2.4816815731209387 -3.309976862898914
-5.770653029392033 1.963352383675187 -1.3134262861528718
-6.299899507169973 0.9653338262761779 2.471363638058913
-4.7573717856869955 -0.0035932670336069044 4.486642246667545
-3.2853727866045537 -3.2222141786371217 10.419780987583575
-0.18550365052580453 -5.387640643921967 12.974083767128732
3.7827640470549952 -5.347677670125052 12.932819540183672
9.17468423705008 -6.948731702833865 13.79741795199899
11.358466300839698 -4.3084610139588495 12.899671606505944
9.72949369067399 -3.58356258636081 11.36701350316334
10.799719533721158 -2.8714754796825637 7.652305260622249
9.297504225115576 -2.258458086397644 5.675899877620887
9.911983974332161 -1.0829943730210088 1.7982702944731193
8.268537234912992 -0.4985563707486757 -0.3158357912488441
6.909767588415093 -0.07203181182010997 -6.328142064881511
3.184382893458982 0.42107445761968987 -10.205401432314556
-6.425968199921323 2.618959321589199 -11.392615462513769
-11.709435370193114 4.497935413710797 -12.75536023188244
-12.826969351195086 6.925325769234316 -10.176382930185518
-11.62434126852949 5.904473529224954 -8.926239667632338
-12.365778256305383 5.718038863373487 -4.832763929632209
-10.85588773862815 4.706238631188539 -2.746539535874227
-10.147279196211587 2.1510128928318637 2.769174939900603
-6.984280083880273 -0.39497163524900253 6.32772477189601
-3.079133537552847 -0.9130156516693142 6.170300947165822
-1.4372449615730418 -1.9432050306106368 7.7896960749967405
2.5764428518937006 -2.72276045067342 7.630770904945014
8.320525898708594 -3.2566689125009143 9.540648303368322
13.584726407429782 -3.90246607753461 11.539621355593596
16.061887055818765 -1.5694451364069748 9.784647971408232
14.649206582090432 -1.4285261396213176 7.927943453276569
13.807677620256216 -0.8843430762133694 1.9086991489408063
10.422188830181632 -0.552988695440638 -2.27351605281212
6.516612337661135 -0.03881062412916832 -2.138302302822556
4.766943277240537 0.32480997203907447 -3.9660472084574714
0.6285117834760879 0.5218670004786913 -3.9059285927993193
-10.353181152767451 4.579749212243963 -7.010322516937786
-14.536705157187399 8.075956051223299 -8.75813927601834
-14.942123482361117 8.24923127574165 -4.186467278512584
-12.966140828457572 4.898439702129491 -0.8372485175534088
-9.323678008620778 3.555986884289089 -1.0585206051337686
-7.757310558608158 2.3174355587317494 0.5910715864704592
-3.730359825009575 1.2515059439552103 0.5428723635783648
-2.1979856362808183 0.14828094587596158 2.208028000981063
1.5509185530480967 -0.30799322287756165 1.9726095162970572
7.47734518899955 -1.5709209605000831 3.7398276497224936
13.072552176960588 -1.3977039713743469 6.008979433519315
18.60117296640786 -0.5959994334872574 8.473132702674343
16.862114748376804 -0.9876583569572851 6.187921331754968
11.458691172433554 -1.3059812363412595 4.040351656321846
5.639970612430946 -1.105975190277159 1.76929901950189
-13.561730803985865 6.906175435426942 -6.978735637821412
-8.801976511725398 3.1831411426863583 -5.118641519866671
-3.457618964442073 1.644733712092936 -3.790391923344324
12.164140227660477 -3.5425295550957663 9.502164413462022
6.656320808180544 -2.6860448429180095 7.679041586240075
-10.259680977352163 4.058179867354756 -11.104119102655648
-4.549413869139544 1.8009059029991026 -9.494279378302103
7.690084245805391 -5.963550870588292 12.366561302049764
-6.6394957316851055 1.2331928685620686 -14.878928398549846