15.222510219756257 -7.056028238172726 17.594380458221305
14.297444582242886 0.17362637726985278 9.612954390074458
10.847835598374868 4.828192289601457 7.0696856516847015
9.587435404884582 7.80811016070704 4.918842288580199
4.489183575558783 12.3306008785576 0.15110134829757194
-2.3051044243310126 13.786999136944122 -6.163789433891527
-7.002079255997103 13.23965174125668 -8.292214736400231
-11.776452652461462 10.978931005725217 -7.803920432221343
-18.242445978953647 9.04993365664995 -5.463366939098725
-16.497929589950925 5.367057272013579 1.9734964644612512
-18.367343554844886 2.859277047968825 9.108833024974631
-11.708392536860119 0.2668535814796778 6.891984859226288
-8.680005182248403 0.16911062596375578 4.495619636028012
-7.093785251193053 -4.620706952576271 -0.8284747197816554
-3.5018187407016086 -5.008727141174639 -3.805525323961681
-0.9466445672680985 -6.781245358973274 -5.800398147439613
4.457108994172773 -8.815423056906893 -7.834737168959479
7.846434664602334 -9.01283943794418 -6.055509206294269
10.93400956923183 -11.08080435056218 -3.7438641649412854
13.655632847616515 -10.84660382424503 -0.3847673792722337
14.599823728013426 -8.4700731914728 3.3401852877107
15.359448416744367 -10.69963274300174 5.601105664116653
16.82114178990679 -10.525355991783208 8.346545341441539
15.862283517936538 -6.766984032097878 14.004390846303448
13.720068850917748 -3.8535618983889073 14.48193976313765
12.406400537032061 0.9789764857905584 11.312811201929549
12.067917532871403 7.4204950178012545 2.2213070170703726
12.061734139320535 8.24638081011409 -3.4570826564406536
11.54933240202713 5.1429740431969195 -10.069414267274995
11.526777578742708 1.885280909916162 -12.566068778123354
11.718009312827432 -2.804415681984365 -12.486652739049756
9.500112908080252 -6.131108324807009 -13.10098001855546
6.006656811208285 -7.139562823176817 -14.773135058103492
-0.8872700611547918 -8.285606500321826 -16.44807877366813
-6.347766546876619 -6.433370782246046 -17.26028033235332
-11.217342794945337 -3.4751116880038757 -14.849341232346974
-14.105126877731053 1.4895872589408492 -13.443552017184054
-13.884298472349672 5.573799462513314 -13.929586654902785
-11.09573687911579 11.759584701066155 -10.780632641327502
-3.51424556284909 13.541224515942236 -3.7881505879919977
5.692205148400796 13.11762156845267 -3.121849273170585
10.234026058789878 10.57783673357846 -4.715245400489454
13.396918132570587 3.862117310135918 -8.711510525824506
12.58459864249376 0.6408410910968295 -10.779018855050593
9.971320895787443 -1.4190799998559946 -13.772875681933018
8.267815854702077 -5.189420365347275 -14.868787986247549
7.5888005537315975 -9.557504477527397 -12.87771479417951
6.874416305585005 -11.13609123586555 -9.351572223162261
8.745808202847769 -10.953447310233207 -6.925663454055711
10.796578254285954 -8.66565320373501 -3.5060300171130425
12.878909075860088 -8.722280940609899 0.0513667124776039
14.99466986911272 -10.892211624664217 3.076284359477438
15.70442591960295 -8.437116717392943 5.481182978039748
14.71955576633026 -8.455691823455338 9.307104717471088
9.468924228489637 -6.995073238569297 14.034714410635384
4.8688125590110545 -5.9405604804094665 16.719802016044316
0.9106515856705296 -3.2961596885858704 17.082960533953013
-3.5715912247533197 -0.7115352170234313 16.90166232335404
-6.799671334354393 2.571405822841917 14.485757465672956
-10.820393884678325 3.0883476401367624 10.42143618352796
-9.858694348598783 1.3732733655264893 7.215691363314735
-10.455841502361686 -1.323563168033875 4.831656010389643
-7.542293398207207 -1.090795019872608 2.083446238016884
-5.041357621961731 -3.448394459719645 -0.8272517033865346
-4.689808832907566 -6.81331811097847 -3.2985050640030282
-3.209885760681211 -8.487076737263619 -6.192186139310745
-2.804130273128852 -9.425971138747006 -13.176807852357344
-6.832474766208714 -6.7643980064312785 -15.13061862792232
-9.862306706104794 -2.0920584712564314 -16.893260158881223
-13.468629051843104 2.691273666458356 -15.352664144054133
-15.936066993176137 4.484081957968597 -11.376706823271723
-16.593411117388403 6.88963651272529 -5.785368880387454
-18.829150440704215 5.89782847652888 1.5770471859910815
-16.595396048338763 3.750303583714434 5.397670260264634
-16.06455435617027 3.3986741883587794 8.756801049873
-8.67464172900471 0.8505675781480463 16.132018491536613
1.2824738149653563 -2.739741253595458 14.880438920319662
8.182922600258273 -7.575318265243006 17.00127901337597
5.671277428401517 -4.849383548357412 15.145985398181686
-3.1498836111922395 -0.2938651195422722 14.86387095403088
-8.027954659613274 12.949408669478027 -6.123787227942337
15.172658579015867 -6.986438099143938 17.57907780534781
14.37639765522629 0.3113096120820055 9.628919427433313
11.144148982748717 5.543195987189588 7.494633218350487
9.542660603752939 7.702295811104616 4.6991209522985935
4.396954865437234 12.203333939057975 0.05894246866297575
-2.376679075253154 13.794805170552443 -6.207853623931082
-7.215974473992982 13.787332928293457 -8.127639751456291
-11.887063404240125 11.092860722961289 -7.933889120980492
-18.22618400965213 9.125322363497652 -5.272791534468487
-16.479743244826974 5.145452247835406 1.976495956978342
-18.312129880725735 2.9774968767454197 9.249801226989344
-11.431308301913974 -0.07614843911537343 7.1891513816427945
-8.601034494881633 0.11800041490151206 4.400216081169031
-6.972118299910368 -4.77466575275346 -0.75617998228291
-3.058421748343349 -5.4707828982646625 -3.302196769631556
-1.045740602442521 -6.845210578843491 -5.995941808722497
4.486297980714881 -8.91191799272177 -7.598592330560034
8.182116839150924 -8.86301754275764 -6.512248682179792
11.170848580693002 -11.102435448063474 -3.7698278410566854
13.182190781214322 -10.925732798414458 -0.06040648299613882
14.946345605857683 -8.525534406469053 3.3702317887719997
16.161134378287443 -10.554820304471995 5.443334456821735
16.829433419571615 -10.412369398647376 8.423778977908082
15.85959027571304 -6.700233236472161 14.055836454713752
14.346003674268744 -3.312651078250475 14.743579496705127
12.303951617545449 0.9568453240078654 11.189687832971716
12.012702921898324 7.444257336702728 2.1997238212154344
12.120911277471151 8.184696289978088 -3.4933252921975155
11.72509704995259 5.152588533168963 -10.262953264012433
11.081245987532968 1.772816097990898 -12.184172541945658
11.512873940687333 -2.8947582186638665 -12.352317155570203
9.787017061278428 -6.293605122139863 -13.592948039805243
5.975151478782001 -7.249798735657043 -14.745564650190184
-0.9981879957386717 -8.364552576697294 -16.482559705009468
-5.950232822693522 -5.835944513009046 -17.081677687804806
-11.199307241434495 -3.3330442674331597 -14.763700388534051
-14.577033762916493 1.4219114949800753 -13.787764711348194
-13.83931434573438 5.65990309967644 -13.918027513096474
-10.968261355112483 11.86261357649914 -10.718876792292898
-3.3880491487822946 13.558808663318395 -3.747593525674657
5.724694498752855 12.906342550177733 -3.1227162904185604
10.423690829967562 10.69067944546626 -4.820862911249575
13.184372390132737 3.7234063636061454 -8.732305055579047
13.019539487755855 0.7525305958824858 -11.169444510912752
10.002398882059811 -1.5027587094802421 -14.01023073281471
7.9801417818600555 -5.008235232906933 -14.38735292709918
7.400821070004751 -9.47810331013586 -12.73569560348339
6.901581741467721 -11.240078160777804 -9.279910694066976
8.357807487516522 -11.156890631136356 -6.512719738632568
10.71241152914714 -8.712134675891464 -3.258559639843738
13.364268941963898 -8.648739363464017 -0.24973653470324852
14.87543184416538 -10.792717658439646 3.2476128648678233
14.937461562479008 -8.6518670542998 5.708525161458934
14.868651528089941 -8.418719521284858 9.428911355095297
9.440777181859035 -6.967362126872658 14.096261177287522
5.149253112878487 -5.313332098894628 16.996021065431854
0.8183690363810895 -3.2495329558854644 17.085828575315613
-3.7797698027455575 -1.113240453272927 16.623188414951453
-6.921023579517024 2.6033777820124784 14.504456157231738
-10.764054623748606 2.970709210162781 10.415476326335831
-10.177720294037847 1.6777533576959913 6.91575931095128
-10.295373052751456 -1.2231296281322406 4.735710294690944
-7.135073146539682 -1.5962296931703785 2.5490811413543257
-4.9939117292348465 -3.304200158797981 -1.0077576939857897
-4.961996965750529 -6.409455886748901 -3.952172186387087
-2.9939877606064784 -8.554496058482814 -6.12631754185531
-3.0145446914701526 -9.512563460721077 -13.142286919768633
-7.181465965749458 -7.371548208725601 -15.326299008124371
-9.978168802412096 -2.03232664257811 -16.973536867646075
-13.008821168126111 2.7049980054072864 -14.97444012211487
-15.741658738313793 4.609731839618234 -11.283729635277798
-16.65740031355525 6.726096410374341 -5.698457989985158
-18.67683679331493 6.013774648858559 1.6947580489439602
-16.448272777682458 4.468049482653754 5.716419250699155
-16.248163662309583 3.2889311423309353 8.814002165517051
-8.588255470586484 0.8220624084939284 16.103708820335395
1.3665701961739896 -2.7962811383532804 14.885127229327551
8.314153335212938 -7.484815510228291 17.069074949425247
5.218347719134801 -5.407469690587419 14.920198544077007
-2.8985804203302217 0.08945713683902119 15.117302900938157
-7.801473494782935 12.394762594031413 -6.249201101337609