15.197584399386063 -7.021233168658335 17.586729131784548
14.336921118734587 0.2424679946759292 9.62093690875388
10.995992290561793 5.185694138395522 7.282159435017595
9.565048004318761 7.755202985905828 4.808981620439396
4.443069220498008 12.266967408807783 0.10502190848027383
-2.340891749792083 13.790902153748283 -6.185821528911305
-7.109026864995042 13.513492334775066 -8.20992724392826
-11.831758028350793 11.035895864343251 -7.868904776600918
-18.23431499430289 9.087628010073804 -5.368079236783606
-16.48883641738895 5.256254759924494 1.9749962107197976
-18.339736717785314 2.9183869623571232 9.179317125981987
-11.569850419387047 0.0953525711821522 7.040568120434543
-8.640519838565018 0.14355552043263392 4.447917858598522
-7.032951775551709 -4.697686352664865 -0.7923273510322826
-3.280120244522479 -5.2397550197196505 -3.553861046796619
-0.9961925848553098 -6.813227968908381 -5.8981699780810555
4.471703487443828 -8.863670524814331 -7.716664749759757
8.01427575187663 -8.937928490350911 -6.28387894423703
11.052429074962417 -11.091619899312828 -3.756846002998984
13.418911814415418 -10.886168311329746 -0.22258693113418626
14.773084666935556 -8.497803798970926 3.3552085382413512
15.760291397515905 -10.627226523736866 5.522220060469195
16.825287604739206 -10.468862695215291 8.38516215967481
15.860936896824791 -6.733608634285017 14.0301136505086
14.033036262593246 -3.5831064883196913 14.61275962992139
12.355176077288755 0.9679109048992133 11.251249517450631
12.040310227384863 7.4323761772519905 2.210515419142905
12.091322708395845 8.21553855004609 -3.4752039743190837
11.637214725989862 5.1477812881829434 -10.16618376564372
11.304011783137838 1.82904850395353 -12.375120660034506
11.615441626757384 -2.8495869503241136 -12.419484947309984
9.64356498467934 -6.2123567234734365 -13.34696402918035
5.9909041449951435 -7.194680779416929 -14.759349854146839
-0.9427290284467317 -8.325079538509565 -16.4653192393388
-6.14899968478507 -6.134657647627546 -17.170979010079066
-11.208325018189917 -3.404077977718515 -14.80652081044051
-14.341080320323774 1.4557493769604621 -13.615658364266125
-13.86180640904203 5.6168512810948785 -13.923807083999636
-11.031999117114136 11.811099138782646 -10.749754716810205
-3.451147355815692 13.550016589630316 -3.7678720568333275
5.708449823576827 13.011982059315198 -3.122282781794572
10.328858444378719 10.63425808952236 -4.768054155869515
13.290645261351658 3.792761836871034 -8.72190779070178
12.802069065124806 0.6966858434896576 -10.974231682981673
9.986859888923627 -1.4609193546681183 -13.891553207373866
8.123978818281065 -5.098827799127104 -14.628070456673363
7.494810811868174 -9.517803893831628 -12.80670519883145
6.887999023526364 -11.188084698321676 -9.315741458614621
8.551807845182145 -11.05516897068478 -6.71919159634414
10.75449489171655 -8.688893939813237 -3.3822948284783894
13.121589008911991 -8.685510152036956 -0.09918491111282231
14.935050856639046 -10.842464641551931 3.161948612172632
15.32094374104098 -8.544491885846371 5.594854069749342
14.794103647210099 -8.437205672370098 9.368008036283191
9.454850705174335 -6.981217682720979 14.065487793961449
5.009032835944771 -5.6269462896520475 16.857911540738087
0.8645103110258096 -3.272846322235665 17.084394554634308
-3.675680513749439 -0.9123878351481792 16.76242536915274
-6.860347456935711 2.587391802427201 14.495106811452342
-10.792224254213465 3.0295284251497723 10.418456254931895
-10.018207321318316 1.5255133616112404 7.065725337133009
-10.375607277556572 -1.2733463980830577 4.783683152540295
-7.338683272373444 -1.3435123565214935 2.3162636896856044
-5.017634675598288 -3.37629730925881 -0.9175046986861622
-4.825902899329048 -6.6113869988636855 -3.625338625195058
-3.1019367606438446 -8.520786397873216 -6.159251840583028
-2.9093374822995024 -9.469267299734039 -13.159547386062993
-7.006970365979086 -7.067973107578439 -15.228458818023345
-9.920237754258444 -2.062192556917271 -16.933398513263654
-13.238725109984607 2.698135835932821 -15.163552133084506
-15.838862865744963 4.5469068987934165 -11.330218229274763
-16.625405715471825 6.807866461549816 -5.741913435186306
-18.752993617009572 5.955801562693719 1.6359026174675222
-16.52183441301061 4.109176533184094 5.557044755481895
-16.156359009239928 3.3438026653448594 8.785401607695023
-8.631448599795597 0.8363149933209872 16.117863655936002
1.324522005569673 -2.7680111959743665 14.882783074823603
8.248537967735604 -7.530066887735648 17.035176981400603
5.444812573768159 -5.128426619472416 15.033091971129348
-3.0242320157612306 -0.1022039913516255 14.99058692748452
-7.914714077198105 12.672085631754724 -6.186494164639972