9.30827712969927 -5.150878310933539 11.060449499451519
6.657302004699277 -2.671027284147828 8.365176570880092
4.632407754699273 -1.7891999984335314 6.397110499451514
2.2329901921992743 0.13558706406646515 2.8300319369515226
-0.5572938703007182 -0.8617896234335447 2.10639949945152
1.297781754699276 -2.2190078734335366 4.218825624451519
3.7769018046992757 -4.676457798433538 7.081737666118189
5.9962267546992685 -6.475493998433535 10.566762124451518
8.12178112969928 -7.487895873433537 12.672598249451518
10.830618004699271 -10.034728531766872 15.892717399451518
13.03596237969927 -11.887440873433537 19.38470912445151
15.156638861842124 -12.768733284147824 21.265497142308657
17.715385129699285 -15.432409810933533 23.88202374945152
20.21392175469927 -17.55012224843354 27.223990624451517
22.395187629699272 -18.651631623433534 29.179775999451522
24.90124387136594 -21.24017219843353 31.660067866118183
24.87489250469926 -24.32116199843354 35.38968524945152
23.62328043327069 -23.247211855576385 33.826042713737245
21.74833500469928 -22.58977162343353 31.79440012445152
19.49948600469928 -20.44084568593353 28.336691561951508
16.71064925469927 -17.95825487343353 25.495354249451516
14.580798004699282 -16.92797874843353 23.418534499451525
12.384072738032598 -14.902698198433539 20.036991932784854
9.675664879699276 -12.486359373433537 17.389032874451523
7.4830367546992775 -11.350080248433539 15.428483124451517
5.078959942199278 -9.151598435933531 12.02311924945152
2.4205830046992793 -6.664346712719245 9.349675142308664
0.4804794332707039 -5.936704712719258 7.519673285165802
-2.0314693078007267 -3.8119484359335356 3.8714699369515166
-4.8112947453007315 -4.825637248433541 3.1221499994515227
-2.947422870300727 -6.204972623433541 5.206287749451516
-0.4593761286340604 -8.680395798433542 8.047476199451514
1.7744567546992727 -10.49933737343354 11.511586874451517
3.911900004699273 -11.524372498433536 13.599794874451533
6.513883004699274 -14.014646935933536 16.65619556195152
8.89215062969927 -16.002894248433538 20.210254374451523
11.037298718984987 -16.911380998433525 22.055596999451513
13.621182192199276 -19.608695935933532 24.60050487445152
16.171384754699275 -21.800790998433524 27.861561999451524
18.423225879699274 -22.95807999843353 29.710956374451534
21.154878404699275 -25.664144198433526 31.810039132784855
25.192755754699263 -28.665724998433532 33.786166499451525
20.25411550469927 -28.034876748433526 34.32648399945154
17.88118412969927 -27.009389248433532 32.08505824945153
15.446249504699281 -24.728030748433532 28.859830249451512
12.600333004699273 -22.09189799843353 26.24032637445152
10.400355129699268 -21.016312123433533 24.276331374451516
8.179594204699274 -18.991503931766868 20.916419332784848
5.513438004699275 -16.573830373433534 18.231386499451524
3.330847254699272 -15.436281748433533 16.26927474945152
0.8909831296992721 -13.214273998433539 12.903654124451522
-1.8057225667292909 -10.665307284147815 10.334989285165802
-3.8725901203007247 -9.743659248433534 8.430661624451517
-6.252434182800723 -7.793575248433536 4.869626374451517
-9.012697245300725 -8.837496873433537 4.062210124451514
-7.191876245300726 -10.170505248433539 6.216954124451519
-4.7289244619674 -12.610540198433538 9.100159999451519
-1.4023581286340554 -15.01127373176687 13.256726399451525
2.3327391921992735 -18.02540999843354 17.575520874451517
4.655018629699267 -19.955899373433528 21.19546312445152
6.813133861842134 -20.916954141290677 23.005675570880076
9.434166442199274 -23.71351768593353 25.386605374451513
13.306446442199274 -26.70127056093353 29.20753012445151
16.920405871365933 -29.880944865100197 32.61588819945152
15.592469171365943 -31.589889498433525 34.83774166611818
13.562422754699277 -30.933683498433528 33.20457737445152
11.112540754699268 -28.578284123433534 30.03403781195151
8.376251754699275 -26.070693498433528 27.160354999451513
6.261833004699277 -25.04145087343353 25.098328874451518
3.999827871365939 -22.971139131766858 21.78888739945152
1.2602863796992665 -20.43456137343353 19.314568499451525
-0.9970286203007284 -19.15071949843353 17.527544749451515
-3.499624557800729 -16.772134248433535 14.324159499451515
-6.143766709586446 -14.304348284147832 11.604668428022952
-8.157405245300719 -13.413598998433539 9.668233999451516
-10.54507366196739 -11.413247998433539 6.399615399451519
-13.417870120300723 -12.350721123433544 5.5177903744515255
-11.505708620300723 -13.764334373433542 7.5192417494515205
-8.96128872863406 -16.252588998433534 10.283951999451519
-5.624428995300727 -18.683592498433534 14.703586561951514
-1.9490738078007261 -21.77548074843353 18.69903656195152
0.517885629699272 -23.92641574843353 22.088258624451512
2.704346861842132 -24.937647712719244 23.812307570880098
5.329583192199269 -27.691830060933526 26.242376499451527
9.042996317199275 -30.56534881093353 30.313299624451513
12.718000361842124 -33.68140342700495 33.39345899945151
11.675405290413563 -35.71832085557638 35.442709570880076
9.559199629699272 -35.03870524843352 33.65685674945152
7.9647080046992755 -33.72331837343353 31.36503587445152
6.454353879699273 -31.853542623433526 29.405411499451517
4.3723380046992695 -30.177608248433533 27.773954249451513
2.171858504699273 -29.045418248433528 25.848046374451513
-0.12981766196739006 -26.870704865100198 22.647562532784843
-2.8818237453007214 -24.34618574843353 20.185810999451526
-5.091158745300728 -23.13465424843353 18.29859374945152
-6.780614245300725 -21.762057123433536 16.016515499451515
-8.290771370300725 -19.91940724843353 13.978518999451524
-10.224827852443585 -18.2680535698621 12.442766285165801
-12.273267995300728 -17.33591037343353 10.548167999451522
-14.750141682800727 -15.314386748433533 7.100192686951516
-17.41469974530073 -16.316918873433536 6.265122749451518
-15.535283120300722 -17.69454699843353 8.322555624451521
-12.99462939530073 -20.184826198433537 11.065839666118189
-9.651162807800722 -22.68232731093353 15.41457081195151
-5.960127682800724 -25.758896623433532 19.392318249451524
-3.5153917453007253 -27.899825748433532 22.78413412445152
-1.2511123286340649 -28.9298656651002 24.730691499451524
1.2631286296992705 -31.70627393593353 26.868221936951514
5.049739129699272 -34.633010748433534 30.757323874451515
8.63636762969927 -38.16792131093352 33.93107981195152
7.404449004699278 -40.246126831766865 35.72702166611818
5.636347504699277 -39.409268248433534 33.8905462494515
3.3389535046992744 -36.92561549843352 30.76537049945152
0.4521855046992691 -34.31231274843353 28.23261524945152
-1.7282168703007272 -33.12839999843353 26.32493324945151
-4.029613395300724 -30.85059299843353 23.208814266118186
-6.814009745300723 -28.33427074843353 20.781009999451513
-9.013169870300725 -27.13367299843353 18.887758124451516
-11.462222870300723 -24.816965310933526 15.624820999451519
-14.182569281015011 -22.321773569862103 13.062815713737239
-16.178554245300727 -21.39155324843353 11.113788624451512
-18.60181930780073 -19.352948935933526 7.662121686951517
-21.06877474530073 -20.479317748433534 6.583623124451517
-19.219045870300732 -21.80681037343353 8.680180249451514
-16.684188861967396 -24.214979865100197 11.475771732784846
-14.519131620300726 -26.199999373433535 14.84471474945152
-12.418976745300725 -27.26383674843353 16.90358487445151
-9.712021557800721 -29.81936831093353 19.743369811951524
-7.227548995300729 -32.17776214129067 23.224032856594363
-5.166294281015013 -33.03054942700496 24.86660442802295
-2.523593745300726 -35.796427373433524 27.173545811951517
0.09458125469927836 -38.211826498433524 30.14739649945153
2.395592629699273 -39.47412599843353 31.797016499451523
5.229653538032606 -42.21157513176686 33.32032406611818
4.5560650046992714 -44.70766299843353 34.642170856594376
0.6862153796992736 -41.8770430401002 31.41212295778486
-3.213725370300722 -38.432419373433525 28.29668899945151
-6.748020864865942 -35.63506525930309 24.38022321684282
-10.35580074530073 -32.51797549843353 20.798765874451526
-14.13801541196739 -29.754183748433537 16.724418707784842
-17.768304566729306 -26.52711885557639 13.150616999451504
-27.61014903877899 -18.64925973756397 0.13601412988629877
-31.103609620300734 -15.59875724843354 -3.6357292505484793
-33.213897217522955 -14.2884576651002 -5.819779444992921
-34.756944245300744 -13.116839248433536 -8.064327000548488
-36.45114810641184 -11.300852442877982 -9.649112333881817
-38.48663628101502 -9.710905141290672 -11.370840714834193
-41.95618299530073 -7.159679290100205 -15.530398958881817
-45.72445937030074 -4.147964248433542 -19.289215000548488
-49.331381603996384 -1.3657015636509262 -22.8534438701137
-52.75126974530073 3.8341702515664693 -26.72582575054848
-50.09709462030074 2.342172751566462 -23.90618975054848
-47.8949408524436 1.3653894301378915 -22.550373000548486
-45.22421930780074 -1.3914357484335351 -20.400258313048486
-42.537680495300734 -3.684289623433539 -17.404975375548474
-40.308938870300736 -4.801703623433539 -15.584351500548475
-37.59775799530074 -7.296000865100203 -13.032911667215147
-35.302121870300724 -9.273165248433536 -9.762830500548485
-33.263432245300734 -10.309878873433536 -7.643995625548481
-30.605033932800733 -12.811540623433538 -4.710435938048487
-28.254558745300727 -14.92640599843353 -1.2628628755484819
-26.26927085244359 -15.734495569862109 0.7178437137372303
-23.597409307800735 -18.13409018593353 3.441280186951513
-21.087223245300734 -17.065786748433535 4.4350018744515225
-22.908384370300734 -15.730620873433537 2.3069859994515163
-25.112323995300734 -13.628546198433543 -0.9953756005484801
-27.839030120300738 -11.214596873433539 -3.591241875548487
-29.98718987030073 -10.085562123433533 -5.5767076255484795
-32.42464437030074 -7.79579956093354 -8.88527743804848
-35.1827225667293 -5.324374998433545 -11.434526143405622
-37.066132852443616 -4.574856998433538 -13.287649286262766
-39.56417205780074 -2.1800036859335403 -16.735113438048483
-42.41594837030075 0.31013462656646595 -19.417087625548483
-44.60508587030074 1.3693046265664535 -21.304912000548484
-46.76261266196741 3.3860151348998007 -24.505035267215145
-46.30234074530074 6.175577251566466 -24.991095375548483
-44.01478913815788 5.422542572995029 -23.53013957197705
-41.49311924530073 2.7573910015664573 -21.034006688048486
-37.782433432800744 -0.06889449843354178 -16.97280987554848
-34.048587395300736 -3.2096325317668724 -13.45999066721515
-31.720009745300736 -5.1017647484335455 -10.143640000548483
-29.64466587030073 -6.137620623433534 -8.032789625548485
-27.026523245300737 -8.62745531093354 -5.026922313048482
-23.676296128634075 -11.084789131766874 -0.6667020005484858
-19.94476774530073 -13.96544093593354 3.101783749451519
-17.24278362030073 -13.020902748433539 3.8589031244515226
-19.08951512030073 -11.69503549843354 1.733909374451521
-20.591740852443596 -10.603986855576393 -0.5797712862627691
-21.94994274530073 -8.812907123433543 -2.4991980005484855
-24.008846870300733 -7.1574786234335335 -4.196098125548488
-26.18384374530073 -6.007863623433536 -6.158756125548482
-28.590408620300728 -3.784966998433541 -9.544660688048484
-31.29175085244359 -1.2848089984335413 -12.158059571977052
-33.32124787030074 -0.38285724843353464 -14.100639250548479
-34.91142949530074 0.8588610015664635 -16.50244450054848
-36.38505749530075 2.586256876566466 -18.67544250054848
-38.406009620300736 4.189234376566464 -20.436709875548477
-40.56997437030074 5.264266876566463 -22.389805500548484
-42.707346528634076 7.115851868233126 -25.727076200548485
-42.01504524530074 9.861348126566465 -26.51879350054848
-39.79171099530073 9.043082572995035 -24.94458728626276
-37.316954245300735 6.443186251566461 -22.287819625548487
-33.71628312030074 3.8183961890664673 -17.966522438048482
-30.056595995300732 0.685100734899794 -14.340762533881819
-27.686690995300733 -1.2469539984335434 -11.052025250548478
-25.54715987030073 -2.3295516234335345 -9.030038250548483
-22.974215495300733 -4.755558810933534 -5.912784313048483
-19.7332584619674 -7.064756865100202 -1.3573167338818146
-16.00484480780073 -9.947499310933537 2.4288884994515154
-13.216208620300723 -9.00336924843354 3.0989357494515204
-15.088086495300725 -7.6404386234335355 1.0177373744515208
-17.32932492863406 -5.6275137317668715 -2.3331851338818144
-19.87541462030073 -3.2876824984335435 -5.218472625548483
-21.98714162030073 -2.2158703734335425 -7.268873250548477
-24.392209932800732 -0.05111718593353842 -10.699089563048481
-27.082973423872165 2.5268988587093184 -13.234333286262768
-29.175561495300734 3.5158757515664654 -15.074305000548474
-31.555006245300724 5.674090939066465 -18.487848375548484
-34.205895995300736 7.958365501566465 -21.60844075054848
-36.29471987030074 8.905053876566466 -23.700336875548487
-38.30391859530075 10.66764400156646 -27.16651840054848
-37.613200120300746 13.520397001566472 -28.01827625054848
-35.43893699530073 12.63025657299504 -26.407866286262767
-32.98994593280073 9.982004064066464 -23.75689331304848
-29.274437807800737 7.2194460640664655 -19.59265831304849
-25.704283595300733 4.263649468233134 -15.711361400548482
-23.455954995300733 2.5811485015664637 -12.19497837554848
-21.328737620300732 1.5342961265664634 -10.117868750548482
-18.709420870300733 -0.9977144984335382 -7.137736813048482
-15.164785995300724 -3.5559821317668745 -2.9623288005484842
-11.449469495300724 -6.516117435933543 0.791179124451519
-8.648916245300722 -5.555123248433539 1.4974604994515133
-10.465809120300722 -4.224586498433542 -0.6578827505484774
-12.498325149146883 -2.278940844587381 -3.672350000548481
-15.45846099530073 0.41433737656646485 -6.500275750548479
-17.69759124530073 1.5858633765664543 -8.40045075054848
-20.095771870300737 3.768940314066466 -11.837759313048485
-22.743934995300737 6.23281771585217 -14.571304714834197
-24.765419745300733 7.049925501566463 -16.575357125548482
-27.02347099530074 9.041439939066464 -20.182836500548483
-29.73531774530073 11.440480376566462 -23.138578750548483
-31.901437370300734 12.469455376566465 -25.147017125548484
-33.89528879530073 14.281818668233125 -28.610241733881818
-33.168258245300734 17.14279700156647 -29.467284875548486
-31.01434128101502 16.258807572995046 -27.795941429119914
-28.58852943280074 13.678279439066465 -25.067122750548485
-26.116300995300733 11.69880987656645 -21.623646250548482
-23.91130312030073 10.572467126566462 -19.699549750548478
-21.39142599530073 8.068551534899795 -16.908693400548483
-19.094460620300733 6.317882626566462 -13.464793625548477
-16.969757870300725 5.305257626566462 -11.369168000548484
-14.385248245300724 2.8479436890664633 -8.28560612554848
-12.011179995300722 0.9039397515664618 -4.71139300054848
-9.924530709586444 0.03896357299503198 -2.8116304291199095
-7.306419807800724 -2.4455094984335393 -0.06890931304848458
-4.467580995300732 -1.5237257484335345 0.571288624451519
-6.305780745300719 -0.18354949843353907 -1.560561000548482
-8.524244328634058 1.8377366682331266 -4.943446333881817
-11.17011024530073 4.304097626566467 -7.636006000548484
-13.356351370300729 5.411675001566461 -9.622614000548488
-15.750105432800728 7.573677251566467 -13.072264625548481
-18.411387566729303 10.06665528728075 -15.743222714834193
-20.449811995300735 10.918682376566455 -17.719406750548483
-22.675280495300733 12.862154251566462 -21.37236156304848
-25.350270370300738 15.186232376566458 -24.416338500548484
-27.507357745300734 16.165344876566458 -26.456428625548483
-29.41215559530074 17.88195780156646 -29.99656493388182
-28.649694745300735 20.696203126566466 -31.010800375548477
-26.47856570958645 19.860145287280737 -29.342602714834204
-24.130995307800738 17.34621962656646 -26.467578813048476
-21.719866370300732 15.451212876566451 -22.92279500054848
-19.515321245300736 14.35559737656645 -20.968618875548483
-17.025554928634058 11.869009934899797 -18.14155880054848
-14.758151745300726 10.140670626566461 -14.665259750548483
-12.645053745300718 9.153779001566463 -12.533630375548483
-10.091905307800728 6.709204876566464 -9.40737400054848
-7.72905737030073 4.794511001566459 -5.80893662554848
-5.646812566729291 3.943063715852174 -3.902440000548487
-3.04189912030073 1.4798590015664637 -1.1203288755484824
-0.1942356203007236 2.3825641265664643 -0.5087927505484799
-2.0274751203007213 3.698072376566458 -2.659833000548481
-4.2178962619673905 5.682058468233123 -6.070270067215143
-6.837474370300722 8.132739376566459 -8.792543250548487
-9.018619870300729 9.240889251566461 -10.790782000548486
-11.39319643280073 11.357760939066468 -14.285658313048481
-14.009509852443582 13.843567287280754 -17.010151143405626
-15.938164138157864 14.545579001566454 -18.887134429119918
-18.24957399530073 16.57086737656647 -22.698936250548485
-20.862673620300733 18.819259251566457 -25.861250875548485
-22.967611120300738 19.737406751566446 -27.98370275054848
-24.880786661967402 21.365380801566463 -31.57158886721514
-24.102166495300732 24.14332350156647 -32.55233812554849
-21.982904566729303 23.352982287280746 -30.800574857691334
-19.64005899530073 20.909383564066466 -27.89016706304848
-17.239843370300726 19.068401876566455 -24.31810050054848
-15.055052620300728 17.987981876566465 -22.34312712554848
-12.59764166196739 15.547221068233135 -19.448281867215147
-10.351041120300728 13.858215501566455 -15.946843000548476
-8.252047745300729 12.869888251566472 -13.809892125548483
-5.7271087453007254 10.472147376566465 -10.630453500548484
-3.3891673703007292 8.622191126566467 -6.983470000548483
-1.312361566729302 7.774219287280748 -5.05550528626277
1.272444379699273 5.331518689066462 -2.2375838755484843
4.142811004699276 6.196362126566463 -1.6755860005484848
2.30593175469928 7.491791126566461 -3.8397425005484855
0.12134653803261321 9.424006801566465 -7.287611200548484
-2.459488495300725 11.839557751566456 -10.076948125548483
-4.626509995300729 12.938537501566458 -12.09380975054848
-6.978976245300725 15.013268001566463 -15.625523313048477
-9.552096423872156 17.4901061444236 -18.410706286262762
-11.570899995300731 18.320824501566456 -20.411990000548485
-13.767530432800722 20.141317314066463 -24.13587375054848
-16.35827312030073 22.35036175156646 -27.343561375548482
-18.461538245300734 23.245789126566457 -29.47370462554849
-20.3690442619674 24.73739313489979 -33.119524867215155
-19.528075495300737 27.456879626566455 -34.222312250548484
-17.396049281015006 26.673940430137897 -32.485559143405624
-15.088181370300726 24.294022314066474 -29.48729018804848
-12.717632245300727 22.54183450156647 -25.851457875548483
-10.547640995300721 21.459089376566467 -23.86083212554848
-8.127229861967397 19.060196401566465 -20.900802333881817
-5.892327495300723 17.442359501566443 -17.35245800054848
-3.804593745300725 16.463927876566466 -15.208816625548483
-1.314735370300733 14.094928189066461 -11.987020875548483
1.0202550046992762 12.279165126566461 -8.322711375548472
3.100913004699277 11.434117430137889 -6.4027294291199155
5.6450456921992735 8.997377751566464 -3.54641431304848
8.548627004699274 9.760140126566455 -3.06988987554848
6.71833825469928 11.055898876566463 -5.239187250548483
4.534038071365944 12.9455227348998 -8.705728800548481
1.9803638796992722 15.364878251566466 -11.51004650054848
-0.17634949530072674 16.476035251566465 -13.52639750054848
-2.52199718280073 18.518282876566467 -17.077741250548485
-5.071579281015017 20.953498430137873 -19.916882571977048
-7.065308995300729 21.755717751566465 -21.96150687554848
-9.220562057800723 23.455488001566465 -25.766143563048484
-11.781996245300729 25.61998275156646 -29.019763125548486
-13.888503245300726 26.511407876566473 -31.147298375548484
-15.804398128634064 28.017372334899786 -34.79045066721515
-14.887431370300728 30.651987501566452 -35.95298962554848
-12.733661709586443 29.844104287280764 -34.25144985769134
-10.487820557800724 27.480586689066463 -31.206327313048483
-7.068482932800729 25.240495439066464 -26.537210688048486
-3.6426627953007293 22.38819853489979 -22.46569753388182
-1.4186156203007307 20.84223687656646 -18.887537000548484
0.6611167546992718 19.882339501566463 -16.72015700054848
3.1388028171992737 17.54469537656646 -13.46756731304848
6.478572004699271 15.31095886823312 -8.953150733881811
10.111956067199275 12.43866737656646 -5.05898450054848
13.04494187969928 13.068308126566471 -4.689633250548482
11.212751004699268 14.358867751566457 -6.851443750548487
9.666382576127846 15.328622858709313 -9.197930143405626
8.412046754699269 17.01978900156645 -11.277137250548485
6.455673379699274 18.69610125156646 -13.089712750548482
4.2944870046992705 19.828316376566463 -15.087381750548488
1.9696725671992734 21.80517556406646 -18.684125625548482
-0.5354708524435929 24.195608715852178 -21.58365942911991
-2.5254211203007273 24.99490100156646 -23.629165625548485
-4.004800120300729 25.92934475156646 -26.22077162554848
-5.3011652453007265 27.34908937656646 -28.69427525054848
-7.2487055667292974 28.924513287280746 -30.889798857691343
-9.251118495300723 29.64578937656647 -32.92357862554849
-11.111964595300723 31.025935401566464 -36.59868013388181
-10.10602462030073 33.501989001566464 -37.95328787554848
-8.00682942387216 32.69351971585219 -36.19766985769134
-5.85385255780073 30.438956501566466 -33.01881381304849
-2.482893370300731 28.35201568906647 -28.266002813048473
0.8745500713659378 25.53177133489979 -24.14048926721515
3.1203870046992748 23.935778501566467 -20.613895250548484
5.221540879699273 22.920732376566463 -18.51211450054849
7.086108226921498 21.34404900156646 -16.23120177832626
8.554155004699277 19.615015834899793 -13.785990333881818
10.922499938032612 18.580676068233128 -10.557749200548484
14.520390942199274 15.72943993906646 -6.632426250548482
17.45065162969928 16.25686912656645 -6.332005125548477
15.585583129699273 17.60548612656647 -8.424323750548478
13.35676960469928 19.4642983348998 -11.854303267215151
10.937858254699272 21.72444150156646 -14.884240500548483
8.85112187969927 22.77457000156646 -16.953309375548475
6.052796671365937 25.021514751566457 -21.08841916721515
4.062062147556413 27.095562858709314 -23.44529557197706
2.0539958796992757 27.994482876566472 -25.41175700054848
-0.14128430780072598 29.709371189066466 -29.145770000548488
-2.5678717453007245 31.610886251566463 -32.66203212554848
-4.5610567453007285 32.35167462656645 -34.90896850054848
-6.460978261967396 33.51888066823313 -38.63459293388181
-5.442108120300727 35.781567001566465 -40.07214275054848
-3.362818423872162 34.99445557299503 -38.298971143405616
-1.2123598078007287 32.813529064066465 -35.106745250548485
2.182652754699273 30.656757939066473 -30.451793063048477
5.457341138032602 28.10341926823313 -26.12283160054848
7.649350754699274 26.770959626566473 -22.46576712554848
9.735138004699277 25.796605626566475 -20.330087625548483
12.188146129699273 23.42781262656647 -17.12659343804848
15.685100671365943 20.918653268233136 -12.936992267215148
19.258780317199275 17.92385606406647 -9.136682188048482
22.130938004699267 18.344411251566463 -8.849768625548482
20.329341004699273 19.653465251566473 -10.985802875548483
18.054971204699267 21.65389220156647 -14.297341867215147
15.559004754699266 24.225356626566466 -16.95533412554848
13.37784987969927 25.46336475156646 -18.84105862554848
11.028596817199272 27.342600626566465 -22.418329125548485
8.601457861842126 29.57437700156647 -25.473465143405623
6.630242504699279 30.33966962656647 -27.51429675054849
4.497699817199278 31.91984625156646 -31.32037225054848
2.068058754699276 33.90643450156646 -34.73908987554849
0.10630114755641427 34.522774001566454 -36.798953143405626
-1.8613360619673947 35.497325401566464 -40.681288667215156
-3.829606495300723 36.660486001566454 -43.65780075054848
-0.9077661203007246 37.501107501566466 -42.275490875548485
2.5089463525253612 35.7458433059143 -37.932053174461515
5.568962254699269 33.835733501566466 -33.276659750548475
8.592466846804534 31.73672663314542 -29.605690105811636
12.148926004699277 29.097035001566468 -24.530462500548484
15.847496588032612 26.537468668233135 -20.26199141721515
19.09943962969927 24.080156876566463 -15.583149000548488
-22.12977665155073 -23.542021467183528 7.786006030701517
26.307585004699284 18.647318126566475 -7.751914625548476
22.88493930904709 21.45871265374039 -11.768672870113694
29.36901783078624 15.439177871131683 -3.639906957070221
32.64819412969928 12.766408751566473 0.590430249451515
36.170015754699286 10.467086459899797 5.176904707784851
39.630150004699274 7.955301001566465 9.672545874451519
43.07263822209058 5.5736186102621135 13.93992256466891
46.49962962969927 3.1221837515664603 18.138777249451515
49.698584917742764 1.0071241754795053 22.559954347277603
49.29969114755641 -0.9804961412906843 25.817413856594385
47.67401100469927 -0.21557337343353566 23.70875087445151
45.29659013803261 1.1680421348997925 20.35482966611819
42.75000962969928 3.0705355015664644 16.769718249451522
40.86000112969927 4.255605376566461 14.617201749451517
38.32796667136596 5.932959401566465 11.38501566611818
35.914203129699274 7.752739751566455 8.120399374451516
34.021209379699286 9.147342876566459 6.089074499451513
31.361119754699274 11.17813912656647 2.8712358744515143
28.86785514755643 13.145350715852175 -0.24476342911991975
27.085894879699275 14.567226876566473 -2.0304757505484865
24.36298675469928 16.417225439066463 -5.308108813048481
21.897768629699264 15.610215626566458 -5.938067375548481
23.351327129699285 14.13672275156646 -3.5965892505484867
25.807288738032607 12.251110534899789 -0.3783123338818181
29.21967331719928 9.567279189066465 3.775398186951513
32.75597912969928 7.298553501566461 8.371584186951516
35.31694375469928 5.524185376566461 11.822181374451517
37.002475576127836 4.364917430137889 13.885863713737226
39.63909125469928 2.435156376566459 16.891571874451518
43.20940831719927 -0.3682136234335349 21.02850468695152
46.37789533803261 -2.591449865100206 25.44356486611819
46.56133200469929 -4.985875398433535 29.417765799451512
44.98733100469927 -4.045107998433524 27.99885914230865
43.34015087969928 -2.814849873433534 26.04773537445152
40.77005581719927 -1.0901319359335346 22.619009374451522
38.32160125469926 0.4677387515664577 18.995018124451512
36.488829129699276 1.53068950156646 16.688507874451524
34.03206064755643 3.1132680729950306 13.59218499945151
31.48233012969927 5.203901126566464 10.316852749451517
29.55777750469928 6.784689876566464 8.435251624451517
26.839609567199282 8.972814814066464 5.326518249451517
24.397940290413565 10.798373430137888 2.064770428022947
22.61037662969928 12.186896876566472 0.19182099945151876
19.79376900469927 14.140963689066453 -2.961553000548479
17.26988737969929 13.300497376566469 -3.5930728755484864
18.815334754699272 11.686418251566462 -1.3915868755484837
21.33242147136594 9.723466201566456 1.7537184661181848
24.685813754699282 7.181122751566463 6.06597262445152
28.223412067199277 4.712005751566464 10.569620936951516
30.849735879699267 2.706559251566457 13.858402374451536
32.56173157612783 1.476921572995033 15.881913142308658
35.18056625469928 -0.4189541234335401 18.927549561951523
38.70539181719928 -2.9176056234335395 23.332001186951516
41.92811233803261 -5.344059465100207 27.579122132784853
40.48444971898498 -7.196014712719253 29.867666856594376
38.87212650469927 -6.112212248433536 27.79799974945152
37.18269450469927 -5.059501998433536 25.468186124451506
35.59017362969929 -3.9285316234335355 23.069976624451513
33.86819512969927 -2.6985112484335403 20.79501524945151
31.990251379699266 -1.4924798734335347 18.614082624451513
29.4536441380326 0.29618620156646214 15.409394132784852
27.00796537969928 2.263147376566458 12.217934499451523
25.074710879699275 3.7355736265664667 10.256622499451513
23.222021754699277 5.1099236265664665 8.15858674945152
21.512788629699273 6.506371751566469 5.946714499451524
19.885822290413554 7.782080001566466 3.897418428022949
18.08701375469927 9.183664626566458 2.073429624451517
15.32005231719928 11.046129064066463 -1.194928625548478
12.818566629699284 10.08506600156646 -1.9108000005484804
14.32685762969927 8.520207126566461 0.3575011244515167
16.824267938032605 6.594998201566458 3.5410374661181816
20.030733671365933 4.062141934899798 7.716288066118183
23.72535719219929 1.5294658765664657 12.342196811951522
26.318637629699275 -0.43150974843354106 15.687344874451519
28.00765229041355 -1.6207084270049645 17.752771856594375
30.632817629699282 -3.5673684359335383 20.789443186951512
34.18117756719929 -6.214596123433536 25.102550499451517
37.451611271365955 -8.758379131766873 29.23746353278486
35.7727715046993 -10.749948831766867 31.364024166118185
34.32681525469928 -9.62167099843354 29.433096874451522
31.824989942199274 -7.88166381093353 25.97990649945152
29.336711004699268 -6.029664123433541 22.515223624451515
27.470271754699276 -4.814625873433542 20.31396224945152
24.94748687136595 -2.994198865100206 17.10998126611819
22.515453504699273 -0.9970142484335298 13.924982624451516
20.56475800469927 0.4668558765664699 11.95288487445152
17.842189504699277 2.555035939066464 8.765626436951518
15.369284861842138 4.504827430137892 5.5833017137372325
13.564050254699282 5.874403126566463 3.7285391244515225
10.807155004699272 7.710654314066463 0.42161806195151463
8.30623300469927 6.6797867158521695 -0.6088182862627686
9.87981000469927 5.076208001566457 1.8628441244515273
12.36459560469927 3.1598286682331302 5.0677252661181855
14.808069879699268 1.1560731265664614 8.243744624451512
17.36342125469926 -0.35764024843354036 10.778358499451528
19.260718129699278 -1.912559060933539 13.896048311951517
21.843302129699282 -3.9426814984335365 17.228080374451515
23.526788004699267 -5.133903998433539 19.321762713737233
26.146227504699283 -7.053082123433539 22.391194561951522
28.725135129699275 -9.210080873433537 25.62900674945152
30.570353504699277 -10.363630873433536 27.834738249451505
33.150588404699285 -12.454518198433538 30.67724393278485
31.67911057612784 -14.47632985557639 32.474486570880096
29.748516504699275 -13.546728373433535 30.70475337445152
27.298473192199275 -11.701008060933537 27.29050624945153
24.938389879699265 -9.717549623433534 23.81630962445152
23.10164500469928 -8.502752998433532 21.593526999451512
20.584737738032604 -6.6758832651002065 18.386292132784856
18.133544004699274 -4.625122498433537 15.250323249451519
16.140501379699266 -3.167569123433541 13.314051624451508
13.411717817199278 -1.067878435933535 10.147697249451515
10.93683529041356 0.9172961444236023 6.978710999451522
9.135358504699276 2.2832668765664685 5.126970124451518
6.401290504699274 4.125002439066462 1.8052575619515157
4.029086254699276 2.971975376566455 0.8726501244515212
5.558156129699274 1.3697305015664654 3.10274924945152
8.041288938032608 -0.5847036651002061 6.2846475327848506
10.476729629699268 -2.6403948734335394 9.420696999451518
12.264308379699273 -3.7996232484335337 11.722800749451519
14.92008856719928 -5.791497248433533 15.022428186951505
17.536412754699278 -7.85900537343354 18.300959874451515
19.262061147556416 -9.116503141290679 20.317314856594383
21.922285129699276 -11.148643248433542 23.266984874451516
24.531561629699276 -13.399491373433534 26.401126249451515
26.32910037969927 -14.616558373433538 28.60483124945152
28.971282538032618 -16.709733731766878 31.398800266118187
27.663385147556415 -19.12600371271924 33.04285542802294
25.91088600469927 -18.05348037343353 31.083536124451513
23.322030817199277 -16.100124748433537 27.82069162445152
20.95720643327071 -14.065020569862112 24.61333699945152
18.90316737969927 -12.653012998433539 22.429535624451525
16.361967938032613 -10.721228265100201 19.304517599451522
13.894509629699272 -8.614373123433538 16.219141499451517
12.380287004699284 -7.0951824984335445 15.038110999451519
9.140714379699268 -5.022101123433531 11.176059999451512
6.644438290413559 -2.9961651412906827 8.056536570880098
4.820637504699267 -1.6165917484335388 6.231072499451525
2.0684780671992726 0.25826337656645926 2.937459061951518
-0.27728062030072564 -0.9134272484335426 1.9532309994515131
1.2573910046992758 -2.54172949843354 4.157741749451517
3.7719140713659405 -4.535693131766874 7.294509932784852
6.237102879699272 -6.6194348734335335 10.405180749451521
8.025603129699277 -7.797688248433541 12.696322499451512
10.764679071365943 -9.935044998433536 16.12031833278485
13.305491504699283 -11.919771248433538 19.23643462445152
15.028086718984992 -13.206486427004974 21.221416285165805
17.753435754699275 -15.295405123433536 24.07334824945152
20.466456879699273 -17.64546349843353 27.057822874451517
22.32854300469927 -18.955039498433525 29.153888374451512
24.94337727136595 -21.127149731766863 31.86483019945152
24.92375250469928 -24.507738498433532 34.88021049945152
23.66085757612783 -23.56805599843353 33.51999214230866
21.924824004699268 -22.37952737343353 31.629090999451513
19.298522879699277 -20.36309662343353 28.43696231195151
16.689827129699268 -18.165617248433527 25.262729124451518
14.77574387969927 -16.795743873433537 23.204481624451518
12.187388804699275 -14.804282598433536 20.157413466118182
9.68359275469927 -12.658678748433534 17.129923624451507
7.670424629699269 -11.181759998433527 15.241452749451518
4.910666567199275 -9.028527873433537 12.139173811951517
2.4102891475564183 -6.983864855576387 9.039794142308665
0.730406861842133 -5.586473427004969 7.3772455708800875
-2.19692924530073 -3.6941259359335383 3.982485249451514
-4.531180370300728 -4.870423748433538 2.967771749451515
-2.983690745300727 -6.526952623433534 5.140285749451518
-0.4674615286340611 -8.54402833176687 8.262786332784854
2.017328254699276 -10.638254373433533 11.34929562445151
3.81950512969928 -11.837208248433534 13.618881749451525
6.507907817199277 -13.884801623433539 16.86112087445152
9.162486129699278 -16.033091373433535 20.058677749451526
10.90688857612785 -17.346697855576387 22.00555414230866
13.660907129699275 -19.476904498433537 24.793095686951514
16.419095129699272 -21.875850873433528 27.68763849945151
18.36160825469927 -23.254257498433535 29.65705162445152
21.19102187136594 -25.57675279843353 32.03869146611818
25.158076004699254 -28.812046498433524 34.3254459994515
20.614985754699276 -28.114354498433535 33.6100687494515
18.04595800469928 -26.809172998433525 31.89677324945152
15.256064129699272 -24.640904685933528 28.974134749451522
12.558635879699274 -22.298219248433533 26.01182587445151
10.59131150469927 -20.89447074843353 24.052550249451528
7.987629538032606 -18.886893531766866 21.038387666118187
5.51904487969928 -16.75271824843353 17.978266749451528
3.5206222546992727 -15.272142998433534 16.07618524945152
0.7270855671992731 -13.08946224843354 13.025829374451515
-1.8298754238721446 -10.980515284147828 10.019554285165798
-3.6851786203007286 -9.565631998433542 8.264116749451517
-6.4216334328007285 -7.6738789359335335 4.9755959369515175
-8.723792370300721 -8.882616748433538 3.919867749451523
-7.224160245300727 -10.497500873433541 6.156974124451519
-4.727891928634063 -12.474928998433539 9.318647066118181
-1.3800569953007256 -15.261777065100205 13.21233493278485
2.3255063796992754 -17.89358049843353 17.779897311951522
4.930448254699279 -19.99222074843353 21.04752812445151
6.669881147556416 -21.345810855576385 22.953298285165797
9.494564442199266 -23.592121435933525 25.585146436951526
13.393050942199277 -26.889549810933524 29.096953624451515
16.957213804699272 -29.775678198433532 32.83083666611819
15.459800338032599 -32.068551165100196 34.56372066611818
13.722812629699277 -30.72034724843353 33.03678512445151
10.909628129699277 -28.502128748433528 30.13528524945151
8.356904879699275 -26.286921373433533 26.95064412445152
6.44979450469927 -24.918611748433534 24.869312374451525
3.8133526046992796 -22.86876259843353 21.915166132784847
1.2475683796992776 -20.59514262343353 19.044476499451513
-0.8134674953007277 -18.971329248433534 17.343303499451522
-3.6752750578007305 -16.657813248433534 14.439922999451515
-6.141868138157869 -14.627437998433537 11.308726285165806
-7.9818594953007285 -13.22795699843353 9.495039124451527
-10.757290528634064 -11.359426865100204 6.5158477994515165
-13.143101620300722 -12.389605998433534 5.359101499451523
-11.537401745300727 -14.07896149843354 7.45267537445152
-8.966002861967393 -16.12502033176687 10.49736373278485
-5.552955120300725 -18.896909810933536 14.627214874451518
-1.9457511203007254 -21.658687498433526 18.907868374451525
0.7768226296992715 -23.95140499843353 21.92911599945151
2.574207004699275 -25.363676712719247 23.755562999451506
5.37311231719927 -27.56922899843353 26.43464062445152
9.129735942199273 -30.74521799843353 30.20491031195152
12.824373004699282 -33.5670770698621 33.564403713737235
11.63018486184213 -36.03018342700495 35.14393985659438
9.72122525469928 -34.83880849843352 33.48590274945152
7.8728315046992705 -33.474637998433536 31.51205599945152
6.157744254699274 -31.93516799843353 29.467333499451527
4.330017629699277 -30.36831137343353 27.541373249451517
2.351101879699275 -28.91392999843353 25.630684374451533
-0.3151036619673941 -26.776569531766864 22.772893532784856
-2.8852651203007262 -24.50377349843353 19.922663374451524
-4.910063495300726 -22.96352774843353 18.121656749451517
-6.824009370300722 -21.494966873433533 16.149995999451534
-8.583556245300734 -19.94941999843353 14.077043624451512
-10.239312566729296 -18.566627284147813 12.129045285165805
-12.101576620300726 -17.150392498433536 10.386523749451516
-14.916282057800725 -15.209518623433537 7.208099749451515
-17.13957249530073 -16.34807787343354 6.126172249451521
-15.555727245300726 -18.000389498433528 8.250854624451517
-13.004601195300724 -20.068634398433527 11.279097732784841
-9.575048432800726 -22.889543623433532 15.339509311951517
-5.962303495300725 -25.648223560933534 19.596318874451516
-3.257302245300721 -27.91891062343353 22.63693924945151
-1.3135683286340527 -29.454522331766867 24.49888449945151
1.3079316921992739 -31.594922435933533 27.064127999451514
5.137420317199272 -34.81077787343352 30.647633561951512
8.613184254699272 -38.11494299843353 34.13531449945152
7.328596838032614 -40.65570466510019 35.38713933278486
5.8079305046992715 -39.192449123433526 33.78344462445151
3.1448055671992705 -36.86839612343353 30.86338656195151
0.42776912969927494 -34.47934587343353 27.98846399945152
-1.5529859953007303 -32.97679362343354 26.131640124451515
-4.2182946619673976 -30.773311398433535 23.329688932784848
-6.804030495300729 -28.476322623433532 20.518816499451518
-8.838632745300728 -26.950519873433528 18.725934249451534
-11.634143182800726 -24.717003623433534 15.733551436951515
-14.166240281015016 -22.592021855576387 12.740662142308663
-16.014709620300728 -21.194337623433537 10.98087887445152
-18.777295432800734 -19.26718506093353 7.759884686951521
-20.791015870300736 -20.472814998433527 6.467539624451522
-19.20123162030073 -22.10419237343353 8.595801749451518
-16.71561112863406 -24.11774313176686 11.68809379945152
-14.272128870300723 -26.28413074843353 14.70311712445151
-12.469586620300728 -27.563175248433527 16.887912749451516
-9.731714120300726 -29.729098373433537 19.947996561951516
-6.8504751381578615 -32.04207942700496 23.07147457088009
-5.249756852443588 -33.434983569862105 24.76959899945152
-2.4949358703007274 -35.70234687343352 27.37305574945152
0.331012379699267 -38.243259373433524 29.985304124451517
2.3526545046992737 -39.736794748433525 31.706716749451523
5.300333204699277 -42.1702254651002 33.53347026611819
4.5766828618421345 -44.86490842700495 34.27962014230866
0.6058978796992717 -41.78072354010019 31.45378195778486
-3.2273428703007276 -38.56328012343352 28.04282687445152
-6.814441343126815 -35.54259143321613 24.3916833472776
-10.312666620300718 -32.63165262343353 20.534489749451517
-14.210856828634052 -29.63889070676686 16.746378124451518
-17.684720852443583 -26.725891712719243 12.800508142308663
-27.672867908344216 -18.55754938973788 0.14682969510369542
-31.04447087030073 -15.705775498433542 -3.903975375548484
-33.14714210641185 -14.172485776211314 -5.952696444992922
-35.00356974530073 -12.583009998433532 -7.553144500548484
-36.607750328634076 -11.375803220655756 -9.68591377832626
-38.390659709586444 -9.875342427004963 -11.73356200054848
-42.05406212030073 -7.073515706766872 -15.505552750548482
-45.67850624530074 -4.243078998433539 -19.556325000548483
-49.425923908344224 -1.2767833462596256 -22.865257217939792
-53.10701249530073 3.884880001566458 -26.22599225054848
-49.88630199530074 2.338269876566468 -24.075164875548484
-47.999360281015015 0.9740692872807456 -22.618180143405624
-45.18507005780074 -1.292249373433533 -20.21341118804848
-42.31734124530074 -3.7218213734335315 -17.573525375548478
-40.31867574530074 -5.091741623433531 -15.630302000548475
-37.607025928634066 -7.188271865100207 -12.831510200548482
-35.06487262030073 -9.36654512343354 -9.90086300054848
-33.311395870300736 -10.598951748433532 -7.658944500548483
-30.638815557800726 -12.722622060933537 -4.509070188048481
-27.995656620300736 -14.896324373433536 -1.3776347505484807
-26.295870852443592 -16.151824141290682 0.6274741423086628
-23.62268555780073 -18.036285623433532 3.6333462494515185
-21.142449370300735 -17.278080498433535 4.225456499451514
-22.712245370300728 -15.624479373433534 2.08856524945152
-25.297116128634062 -13.527577131766867 -0.884888533881815
-27.825433245300733 -11.369576998433537 -3.8519388755484805
-29.815743620300733 -9.896475998433537 -5.744816125548489
-32.60304362030074 -7.704567748433536 -8.777609000548482
-35.14157856672931 -5.573764284147826 -11.77182642911991
-36.89252742387216 -4.185788141290682 -13.350986143405619
-39.75885149530074 -2.1286476859335366 -16.64135981304848
-42.425315995300735 0.1455600015664622 -19.658626250548487
-44.445827245300734 1.543273876566463 -21.49045187554848
-46.9787116619674 3.4430664682331327 -24.455104133881818
-46.06351999530074 6.131165001566458 -25.16103700054849
-44.1417378524436 5.010913430137895 -23.5241877148342
-41.43299755780074 2.884870126566458 -20.86006931304848
-37.70880137030074 -0.2571494984335452 -17.071324563048485
-34.02821339530073 -3.0747106651002087 -13.26568860054848
-31.501934120300735 -5.23772862343354 -10.290685500548474
-29.72581749530074 -6.429354748433536 -8.019230750548488
-27.03870068280073 -8.514392623433533 -4.828590188048484
-23.58092899530073 -11.28078779843354 -0.7638059338818114
-19.94634780780073 -13.848207185933537 3.28958437445152
-17.325126370300726 -13.24954449843354 3.6607667494515113
-18.891916870300737 -11.616091248433545 1.4939642494515262
-20.64395542387216 -10.207862998433532 -0.38411857197705296
-22.23914387030073 -8.918929748433538 -2.453148625548483
-24.026197495300735 -7.338653748433533 -4.449646125548483
-25.99866749530073 -5.843711748433531 -6.353900375548481
-28.758911370300726 -3.666467185933538 -9.43412437554848
-31.28649528101502 -1.575133712719248 -12.478363714834197
-33.15103024530073 -0.1814781234335392 -14.245551750548483
-35.01541787030074 1.1113651265664615 -16.372363750548477
-36.66890187030075 2.5036877515664564 -18.61004800054848
-38.44527249530074 3.9929466265664644 -20.660937875548477
-40.39394549530075 5.388588251566457 -22.60123000054849
-42.90527779530074 7.209426601566463 -25.653313133881813
-41.75809449530073 9.830614376566459 -26.684799750548482
-39.92167528101502 8.615500858709327 -24.950651857691337
-37.261422745300735 6.581023251566462 -22.11030731304848
-33.64223599530074 3.618006876566465 -18.059178688048483
-30.0226604619674 0.8297101348997936 -14.145256533881815
-27.485191370300733 -1.4002744984335322 -11.218626625548485
-25.64213637030073 -2.6256108734335406 -8.991732250548477
-22.98319162030073 -4.625513498433538 -5.720323438048483
-19.644932928634066 -7.271682931766871 -1.4529118672151489
-15.998855370300724 -9.822285935933541 2.619846874451518
-13.308299245300724 -9.235212123433538 2.8949999994515174
-14.888564620300734 -7.5599723734335385 0.7697503744515153
-17.51825952863406 -5.5011101317668745 -2.223792067215148
-19.87143324530073 -3.497798998433531 -5.45029462554848
-21.797700495300727 -2.060695373433539 -7.479043625548481
-24.556191870300736 0.07771637656646035 -10.582637938048485
-27.102539138157876 2.23307328728075 -13.573973143405624
-28.999362745300736 3.722747876566462 -15.223969500548478
-31.757747995300733 5.756133814066464 -18.394144500548485
-34.22982299530074 7.7282967515664645 -21.809311625548478
-36.104790370300734 9.011096126566464 -23.92373850054848
-38.49537552863407 10.787214934899795 -27.09282493388181
-37.35812337030073 13.495031751566472 -28.191194375548484
-35.57309542387216 12.193118715852169 -26.428300286262772
-32.92840505780073 10.118368939066466 -23.56806000054848
-29.189393745300734 7.014150314066464 -19.691123188048486
-25.684586795300735 4.422904668233133 -15.51869386721515
-23.236317495300735 2.4198177515664696 -12.347797125548478
-21.434978495300733 1.2398995015664624 -10.088993750548475
-18.702168057800733 -0.8720639359335376 -6.933037688048479
-15.071724728634058 -3.7579330651002048 -3.0778790005484873
-11.452690370300727 -6.388452748433538 0.9853591869515181
-8.737267495300728 -5.800545748433546 1.3055818744515157
-10.259967620300728 -4.156582248433537 -0.9120823755484828
-12.704162687608418 -2.2545842292027705 -3.6192587697792495
-15.487198620300727 0.21960287656645505 -6.752808375548479
-17.504069745300733 1.736526876566458 -8.613745875548485
-20.260604182800733 3.904633314066462 -11.723173688048481
-22.75022128101502 5.903907858709313 -14.884330143405622
-24.581731120300734 7.24283300156646 -16.74185800054848
-27.215732870300734 9.139326689066461 -20.08179693804848
-29.78168274530074 11.225226751566463 -23.359179500548482
-31.70937574530073 12.576627126566464 -25.372259250548485
-34.08975459530074 14.394785001566468 -28.533142533881822
-32.902573495300736 17.124969251566462 -29.629159250548486
-31.147103138157878 15.819087287280748 -27.82063385769134
-28.538226495300734 13.821409001566465 -24.88215056304848
-25.88057462030073 11.58667850156646 -21.797996625548485
-23.984350745300738 10.256759001566458 -19.70377512554848
-21.363411995300726 8.225784334899796 -16.715319133881813
-18.879122370300735 6.150692376566461 -13.621259625548483
-17.077831995300727 5.0102895015664615 -11.330953500548478
-14.383676432800724 2.98516043906646 -8.08840475054848
-11.746719995300726 0.8741537515664675 -4.86281212554848
-10.037003995300726 -0.3996264270049648 -2.8586244291199017
-7.300231495300727 -2.315587435933539 0.12300974945151388
-4.5645283703007316 -1.7657264984335335 0.3771884994515169
-6.102016245300728 -0.12524399843353606 -1.8150667505484819
-8.69577772863406 1.978379334899798 -4.820701533881818
-11.19143149530073 4.100302001566465 -7.883057750548485
-13.16099062030073 5.56294725156647 -9.835479625548484
-15.914832557800727 7.709351376566461 -12.95504931304848
-18.42634313815788 9.745377144423609 -16.05785514340563
-20.258929870300737 11.10295512656646 -17.882226875548486
-22.867957870300742 12.961601876566462 -21.277002125548485
-25.39478224530074 14.964007251566471 -24.635094125548473
-27.31034812030073 16.270859376566456 -26.675643625548485
-29.612992461967405 17.994193334899805 -29.93655493388182
-28.393815370300736 20.662968501566468 -31.18252562554848
-26.61053442387216 19.418314572995033 -29.34923057197705
-24.08126955780073 17.49721387656647 -26.290031500548483
-21.48733199530073 15.332348501566472 -23.09254725054848
-19.591939120300733 14.04433662656647 -20.965394875548487
-16.99483006196739 12.028679668233131 -17.952466867215147
-14.545671245300728 9.969890751566467 -14.819285625548478
-12.756686620300727 8.860581626566468 -12.49247687554848
-10.08822855780073 6.85019931406646 -9.213065125548482
-7.465308120300726 4.756934876566465 -5.960376500548481
-5.7644342810150135 3.5026160015664596 -3.9340237148341908
-3.036035495300725 1.6154467515664592 -0.9339105630484799
-0.29191624530072247 2.1390458765664704 -0.6945161255484784
-1.824313120300733 3.74955912656646 -2.917310250548489
-4.38756306196739 5.828920801566462 -5.951426733881819
-6.864210370300722 7.9240816265664655 -9.03456012554848
-8.820792745300725 9.381653876566467 -11.00901537554848
-11.555534495300725 11.497769814066464 -14.17211831304848
-14.035956709586438 13.51506728728076 -17.32148914340562
-15.686993709586448 14.899804572995034 -19.02910685769134
-18.44225580780073 16.677761439066465 -22.60648975054848
-20.90874224530073 18.58795012656646 -26.067344125548484
