16.47520813040393 -7.251666341326475 -18.32983296452536
18.3432061981625 -4.312622519582172 -14.428814982246191
19.499205670002226 -3.455783646625888 -9.84420907293567
20.0362790178165 -2.4636700184739815 -4.732781572723342
18.92217338732755 -3.005198523662754 1.0682983790880272
17.112986245335954 -2.439827521958085 8.74010786522214
10.820541908827936 -2.8292098950071507 16.153246271203226
6.8125769634448785 -4.835132236709705 18.71213918215822
2.737274442967227 -8.979415628402469 18.761145568630486
-2.196329559845805 -12.168214248001469 18.152113435572904
-7.099666096075872 -15.42616642807266 13.989045778274315
-6.0631360336951765 -17.598304444498382 10.053048469391225
-7.052657141649175 -19.097816205726293 6.429734506884477
-10.337979884347371 -19.40340291804509 3.08964498069868
-11.865243229188248 -17.704274012876088 -1.0652225653500995
-15.297296776027755 -12.86610215058178 -3.9617444065927234
-17.248508228214227 -8.318914706141191 -5.023190148343779
-19.46290290823073 -5.22463473792834 -3.6259469875757633
-21.285779072385825 0.2703660680484886 2.4955853571495012
-20.617744940470565 4.799245012787116 2.661125538313787
-21.041305697287232 6.642250087855825 3.4732074405440874
-18.024660271081505 11.802761622700746 3.0935404007801255
-14.181266426497197 15.808096416046906 0.8144484904814607
-8.453472657301857 18.574452877492163 0.029611303639991426
-3.1911506290806786 19.500805795286972 -3.075222424497346
-1.6687785744648285 18.325645486558752 -6.150527606684318
2.4980419664999767 17.090245179571497 -11.373701836852227
6.769105895810384 15.48588006922346 -14.27097721769277
7.859502180829228 12.9549304253604 -15.340629306486655
8.938391322401353 10.135182424435323 -16.736508243299618
8.199928547256674 6.431981060104638 -19.39241747835597
9.627261331072148 2.82175897836332 -20.716874136173484
12.709514262859265 0.7298091334320193 -20.16775923081597
13.802795220065086 -1.7831821065408584 -20.688512871058432
16.12164916362768 -3.7338756458611595 -17.660111192062562
16.99458800799445 -6.055275735219661 -13.757446552300134
18.376277583227576 -5.539406967475232 -8.27354815433554
19.935651123355655 0.40401047263496664 1.0568670558986069
18.32596909860777 5.440252809398458 4.010830719264191
17.412007701166797 8.175141867649907 3.158468238840928
15.097061773279366 12.127361937284457 3.663393840131104
13.436408206520312 15.364299313341363 1.7640546659067864
12.025253280199495 17.029896674255323 -2.3273794692436796
8.960568696955287 18.694018009745815 -4.417230970005905
5.362117568587948 20.16917612614015 -3.8371829429802524
0.5459658541410821 20.25219228435542 -4.295799839154694
-9.271474388255463 17.34458960768253 -2.3533718821942213
-15.856548672144987 13.700530368391526 6.078667100795478
-17.27903247352292 8.674538856516795 12.636355859014753
-15.476436078916365 4.47529095449904 16.47983430781632
-13.364911876779264 -1.4397700081285647 17.829928599025326
-9.2388826671546 -5.377903610149041 19.436293316909644
-5.435605647169228 -5.406270260356587 20.331702057361383
1.4175870306491993 -6.216027671976757 20.590261458653764
11.593836995258084 -5.393355511817489 15.73174837298642
16.558994976504433 0.730099569677606 10.760677711127498
17.842614676007376 5.738917233771953 7.072038773436495
17.071996631258898 9.060367940414652 5.361665481388695
16.381145700656027 11.56515273946278 1.5423065637901698
14.105047935418526 14.390004919100152 -0.3114929572989022
11.348267431600652 16.900920860873992 0.4742568725379031
7.9923801892250115 19.81249537950048 -2.6668521205619298
6.713076696866726 20.38647917727924 -7.021199853579115
5.739815564357286 17.50077743289548 -12.166926881768262
4.6214228210456625 14.492703951081166 -14.539966332811584
5.727205431367394 12.704608855725517 -16.524413332341762
7.11130737924059 10.137515382673248 -18.25627668981677
10.49113586582022 6.909228601252096 -18.46057222769031
11.498824503253227 3.046412159323424 -19.27626298290505
9.764093311323588 -0.166667942373038 -20.47315068745605
8.72653582510731 -3.5069121794163007 -20.005617715197932
6.185628504385713 -6.994412143331923 -18.987277685955192
1.9741539530893075 -12.394584160477896 -14.828294909628193
-7.496451130093995 -13.465194311119573 -10.45626407120657
-14.375364744605319 -11.560768085235901 -7.05532212030052
-19.38323312314612 -6.410001261565672 -1.3539972147742847
-20.2120934623493 -1.8499257339408914 -1.529025590010885
-21.171722122792666 1.6270459756350788 0.30876280913161663
-20.79992864591408 5.718921009883473 6.269380324480408
-18.579636749650565 5.529358529359661 11.216520367566437
-15.910609595868058 2.698657860766128 15.051572431166088
-13.57749398668705 3.043653833953986 17.33570468129732
-10.739188670509634 -0.5025978582006365 19.283067916404942
-7.892702211289927 -3.7279870238245416 20.416228298092438
-7.140929574217558 -7.885387112313257 20.101429007842864
-5.045144795132546 -11.850618369936049 18.11762249638194
-3.485359893234879 -13.722239861976627 16.319758843328287
-4.7304242982583204 -16.36339175718895 13.626245609139252
-8.308542851853812 -17.85203349292957 10.890899170669659
-9.476393506293167 -18.41197503863608 6.976920337041995
-8.062313330386505 -18.898480368258678 2.5757999250250063
-8.417465549261879 -19.056799391058195 -1.4185251356187871
-6.053949129699531 -16.975723043780047 -8.442733661633094
0.3249522306742556 -10.927165163330503 -16.1353610775167
8.501203028708758 -8.307673338923934 -18.126032086191927
-3.5043334940721897 -13.055896939168145 -13.569141739543108
14.55907018519374 -3.3719240029240773 12.447301289265774
7.504127343596745 -7.098964384411208 18.210284818426718
-12.896089261092088 16.044612191380445 2.7856256368425423
-4.396271390732148 18.618928715117296 -4.950894133268578
16.476032124610434 -7.27251419906223 -18.244734715886196
17.61711722094514 -4.0662424130603885 -14.017249685444312
19.51994673115239 -3.4432852555271305 -9.791059150572423
20.735905284013278 -2.6125560927933713 -4.637057345441182
18.84676504905276 -2.7690445127455074 1.0913523021688691
17.09979070622785 -2.4485811994898543 8.771204594450598
10.760021360526846 -2.852814964903276 16.20901093891887
7.123909276557185 -5.00890789196191 19.20571970436475
2.6620381758589455 -9.003128213529472 18.78006047549059
-2.1457209972475537 -12.229042989004785 18.155504353121128
-7.151985184526592 -15.639433031214613 14.04463569278067
-6.22316622584766 -18.430036970615223 10.317158824127471
-7.034517591301772 -18.909135506650244 6.306141334914983
-10.204291108391237 -18.538032298985243 2.9981273226365173
-11.870506795199018 -17.701254065711293 -1.0818290392795822
-15.462774887016423 -12.893165713896959 -4.051933270091606
-18.043774154767533 -8.650403460043313 -5.213561579326963
-19.30762826632284 -5.085958881080795 -3.5429348563921748
-21.52799787925117 0.3348552302345704 2.5079016228720845
-21.449074291824175 5.062758157643577 2.6319657243687478
-20.46278063358776 6.520892523858539 3.6329557218404798
-18.085959065570236 11.946249622637193 3.0497427270676605
-13.850529683607386 15.316975634671204 0.8471354352788562
-8.296165525934272 18.49869560117658 0.0027627866305619973
-3.37793808721394 20.183094718544464 -3.2566322749490944
-1.4763138465000607 18.49533948085856 -6.139069573231003
2.531085233147741 17.061514281498123 -11.405534485941148
6.6437334182707986 14.853019398786076 -13.678720166131928
7.87020680438089 12.86293530219536 -15.400834449101152
9.121042769264994 10.43328471127255 -17.210830687379843
8.318534744857729 6.408886877130582 -19.630498680671288
9.414424295677108 2.6902753986509134 -20.18397810173435
12.599598428127818 0.5329651246813203 -20.222293176234302
13.821200802400533 -1.7902469813949993 -19.8766799985375
16.31429376143747 -3.7849321304781425 -17.71516947941646
17.77432939950787 -6.346962222765255 -13.83825673328667
18.291253020917033 -5.427086477318805 -8.207966380509072
19.896571665235687 0.3951736932839785 1.1002896479791628
18.317686305269756 5.5224227686675 3.9249995439228265
17.929466686325913 8.407357803916218 3.315208509402181
15.232994626815348 12.351031896888294 3.6665920782765373
13.016623040470932 14.958890068919585 1.662645092239423
11.81222161242024 16.903881873606714 -2.4086192612693456
9.230432748829605 19.214530266056748 -4.404202161803309
5.330549003685681 20.173115920287763 -3.9142968607904516
0.4272150179865353 20.47577535095783 -4.3285245670635595
-9.305869586305635 17.20980351337809 -2.2516302801291785
-15.905449818511984 13.657302386276182 6.126780172045047
-17.355788894979504 8.667650737264701 12.770114393516666
-15.034993428006134 4.476877675378476 16.074360878309413
-13.22813514224719 -1.5093679837622236 17.767413257526712
-9.387717563418969 -5.3985961582616 19.99676263797548
-5.381062830322106 -5.525873409403177 20.345584547152203
1.5275921462217563 -6.237536072555208 20.705891088968563
11.695944921383418 -5.327444956411557 15.670136058683553
16.46594811754487 0.7384556525550723 10.564261207254335
18.027325202520817 5.867792785295096 7.0325381851288595
16.549558739675494 8.812089070223418 5.234218342827966
16.138030919893023 11.539797786481461 1.4346426709504292
14.514451912518785 14.801551865038673 -0.200389032751644
11.395404827035343 16.943568929083302 0.2600077794043208
7.578318963338139 19.223474856293116 -2.4971388121917437
6.553196947111065 20.196763493727133 -7.050006075639919
5.872879324227981 17.451980563186677 -12.185513391635089
4.79526899480426 15.051517510393706 -15.184665316001816
5.805806687729086 12.604708023493352 -16.588625327952716
6.910656128122578 9.815676905813763 -17.81070507028951
10.448192202508244 6.707087750802017 -18.300284736734177
11.68801135640122 3.2087280329118975 -19.805622047602643
9.824580399614302 -0.2329214554878951 -20.453579888533937
8.841577325890356 -3.666166670533456 -20.004959614907037
6.125765531656802 -7.011820808135467 -19.00134272253778
1.9082587017041466 -12.437826985985804 -14.790292199785638
-7.571076212093136 -13.48169296167678 -10.40209124591001
-14.416027734577916 -11.51520154277185 -7.079313785759539
-19.604219836234392 -6.40911755760596 -1.3707184744265715
-21.069606014934024 -1.86588377169983 -1.6721490333150189
-20.971450449122273 1.6941209800891162 0.3868225127728949
-20.862164097983957 5.631523775544574 6.403416738208205
-18.588110301776 5.456641468315545 11.267093718690628
-16.549346849791373 2.5771291128802125 15.38922837761117
-13.872586677778461 2.6995824032856524 17.483925136089677
-10.64054926085425 -0.4736770746714245 19.490717842141944
-7.7814097724884235 -3.7076575447335123 19.83187394090146
-7.111119606862221 -8.016182696631569 19.996741192760044
-5.2324587112349095 -12.284932276410762 18.514078057747778
-3.592792242687473 -14.382917922189007 16.88484433495728
-4.725140400535914 -16.244000154652028 13.439746564380256
-8.231033132104717 -17.096577771778925 10.415094694630938
-9.519486463243348 -18.62803626629556 6.9415176984394815
-8.213423388231064 -19.76792133875802 2.4558391664295027
-8.393672918570688 -18.84951186928085 -1.4572181251292247
-6.01095645549866 -17.06464172093337 -8.560376997658016
0.4262170428903851 -10.886069371518955 -16.189151414774603
8.545356320034223 -8.17797924667206 -18.00278955584193
-3.325278693092192 -12.700149908009474 -13.134624999352821
15.159276738495691 -3.3420315266679474 13.112169872187124
7.2288783747335685 -6.9030163178194215 17.69512692832805
-13.23058150196242 16.531497345990513 2.7823566241497875
-4.1012610432335155 18.222014639380053 -4.4136286654416175