16.475620127507185 -7.262090270194355 -18.287283840205777
17.98016170955382 -4.18943246632128 -14.223032333845252
19.509576200577307 -3.44953445107651 -9.817634111754046
20.386092150914884 -2.538113055633677 -4.684919459082262
18.88446921819015 -2.88712151820413 1.0798253406284481
17.1063884757819 -2.444204360723969 8.755656229836367
10.79028163467739 -2.841012429955213 16.181128605061044
6.9682431200010315 -4.922020064335807 18.958929443261482
2.6996563094130863 -8.99127192096597 18.770603022060545
-2.1710252785466793 -12.19862861850313 18.153808894347012
-7.125825640301233 -15.532799729643644 14.016840735527492
-6.143151129771418 -18.0141707075568 10.185103646759348
-7.043587366475475 -19.003475856188267 6.367937920899733
-10.271135496369304 -18.970717608515166 3.0438861516675986
-11.867875012193636 -17.702764039293694 -1.0735258023148408
-15.38003583152209 -12.87963393223937 -4.006838838342164
-17.64614119149088 -8.484659083092252 -5.118375863835371
-19.385265587276788 -5.15529680950457 -3.584440921983969
-21.4068884758185 0.30261064914152946 2.501743490010793
-21.033409616147374 4.9310015852153475 2.6465456313412674
-20.752043165437495 6.581571305857182 3.553081581192284
-18.05530966832587 11.874505622668973 3.0716415639238943
-14.015898055052292 15.562536025359053 0.8307919628801583
-8.37481909161807 18.53657423933437 0.016187045135276704
-3.284544358147309 19.841950256915716 -3.16592734972322
-1.5725462104824446 18.410492483708655 -6.14479858995766
2.514563599823859 17.075879730534815 -11.389618161396688
6.706419657040591 15.169449734004768 -13.97484869191235
7.864854492605061 12.90893286377788 -15.370731877793903
9.029717045833173 10.284233567853937 -16.97366946533973
8.2592316460572 6.420433968617609 -19.511458079513623
9.520842813374628 2.756017188507116 -20.450426118953914
12.654556345493537 0.6313871290566699 -20.19502620352513
13.81199801123281 -1.7867145439679286 -20.282596434797966
16.217971462532574 -3.7594038881696505 -17.68764033573951
17.38445870375116 -6.201118978992457 -13.797851642793402
18.333765302072308 -5.483246722397022 -8.240757267422302
19.91611139429568 0.3995920829594723 1.0785783519388847
18.321827701938762 5.481337789032979 3.9679151315935086
17.67073719374635 8.291249835783063 3.2368383741215543
15.165028200047356 12.239196917086376 3.6649929592038206
13.226515623495624 15.16159469113047 1.7133498790731048
11.918737446309867 16.966889273931024 -2.367999365256513
9.095500722892446 18.954274137901276 -4.410716565904607
5.346333286136814 20.17114602321396 -3.875739901885352
0.4865904360638087 20.363983817656628 -4.312162203109127
-9.288671987280548 17.27719656053031 -2.3025010811617
-15.880999245328487 13.678916377333858 6.102723636420266
-17.317410684251207 8.671094796890749 12.703235126265708
-15.255714753461248 4.476084314938759 16.277097593062866
-13.296523509513225 -1.4745689959453938 17.79867092827602
-9.313300115286784 -5.38824988420532 19.716527977442556
-5.408334238745668 -5.466071834879882 20.33864330225679
1.4725895884354778 -6.226781872265984 20.64807627381117
11.644890958320751 -5.360400234114526 15.70094221583499
16.512471547024653 0.7342776111163384 10.662469459190913
17.934969939264096 5.803355009533524 7.052288479282679
16.810777685467198 8.936228505319034 5.29794191210833
16.259588310274527 11.55247526297212 1.4884746173702996
14.309749923968658 14.59577839206941 -0.25594099502527307
11.371836129317996 16.922244894978643 0.3671323259711119
7.785349576281575 19.517985117896792 -2.5819954663768367
6.633136821988895 20.291621335503187 -7.035602964609514
5.8063474442926335 17.47637899804108 -12.176220136701675
4.708345907924961 14.772110730737436 -14.8623158244067
5.76650605954824 12.654658439609431 -16.556519330147236
7.010981753681584 9.976596144243507 -18.03349088005314
10.469664034164234 6.808158176027053 -18.380428482212242
11.593417929827226 3.1275700961176605 -19.540942515253843
9.794336855468945 -0.19979469893046647 -20.463365287994996
8.784056575498832 -3.586539424974877 -20.00528866505248
6.155697018021258 -7.003116475733697 -18.994310204246485
1.941206327396727 -12.416205573231851 -14.809293554706917
-7.533763671093564 -13.473443636398171 -10.42917765855829
-14.395696239591617 -11.537984814003876 -7.067317953030025
-19.49372647969026 -6.409559409585818 -1.362357844600428
-20.640849738641663 -1.8579047528203605 -1.600587311662952
-21.071586285957473 1.6605834778620991 0.34779266095225575
-20.831046371949018 5.675222392714023 6.336398531344306
-18.58387352571328 5.4929999988375995 11.241807043128535
-16.22997822282972 2.63789348682317 15.22040040438863
-13.725040332232757 2.8716181186198186 17.409814908693495
-10.689868965681944 -0.4881374664360312 19.386892879273443
-7.837055991889176 -3.7178222842790265 20.12405111949695
-7.126024590539889 -7.950784904472414 20.04908510030145
-5.138801753183728 -12.067775323173406 18.315850277064857
-3.539076067961176 -14.052578892082817 16.602301589142783
-4.727782349397116 -16.30369595592049 13.532996086759754
-8.269787991979264 -17.47430563235425 10.652996932650298
-9.497939984768255 -18.52000565246582 6.959219017740741
-8.137868359308785 -19.333200853508348 2.5158195457272545
-8.405569233916284 -18.95315563016952 -1.437871630374006
-6.032452792599097 -17.020182382356708 -8.501555329645553
0.37558463678232035 -10.90661726742473 -16.162256246145652
8.523279674371494 -8.242826292798 -18.064410821016924
-3.414806093582191 -12.87802342358881 -13.351883369447966
14.859173461844716 -3.356977764796013 12.779735580726449
7.3665028591651565 -7.000990351115316 17.952705873377386
-13.063335381527253 16.288054768685473 2.783991130496165
-4.2487662169828315 18.42047167724867 -4.682261399355098