-46.74696997077113 -6.922083986814715 -33.42013588978188
-45.580408410203425 -5.478441228456353 -33.51237602626607
-44.35341843316278 -5.379024364957843 -32.916532965118016
-42.71502732037854 -3.616233045832047 -31.572949561463883
-40.441025600707064 -2.550174990572117 -29.36171745032669
-39.91663921394051 1.2668579503174076 -25.254633666809234
-41.86707363254819 4.708034638452162 -20.43404441557089
-41.7801581624534 5.973513852866507 -17.016655672907373
-42.97030843766562 7.932866291934073 -13.489397984374225
-44.55528951267528 7.467167226891527 -12.820759633688885
-42.69378073886026 8.897702336197977 -11.498533813456325
-40.841076850738624 9.550607755540243 -9.058782161693754
-40.59410894864508 9.85181550102891 -6.348075770637888
-37.983211824453406 11.754669714578785 0.2347285560971899
-39.88503437230746 12.600227467235086 6.818851979140572
-39.823775429272445 12.462955452093702 9.566466103888573
-41.31205458539139 12.412615698885588 12.391878077825067
-42.96205280943134 12.714370930307046 14.44266963801957
-44.48920844493463 13.174902367125611 14.09357270744574
-44.626590636484664 12.101513077942917 12.713824523717275
-41.32388308211099 12.64810695741023 14.669505564077157
-39.146478504479155 13.056364629500466 17.000545153782255
-36.57112084525448 12.631977690910645 19.42456418662066
-35.480249336909665 13.262519673883073 25.699353036318513
-34.83108929791675 13.308862987912212 32.36487133190982
-36.65828052485185 12.986534174112574 35.20387282328907
-37.414579748702266 13.218759975878452 38.01170315342025
-38.955403896045816 13.01073601435049 38.119585956344295
-40.03137833776122 12.636488927570094 39.979639467875984
-40.42978368455209 12.983292167190285 38.56218492104388
-37.10132528336279 13.275630330362816 39.95057693315296
-35.49144981797823 12.842434033616957 41.41733113807661
-33.60960030279597 12.76935101487947 42.85570694948552
-33.64802161955071 12.994412474724658 44.11065997155869
-35.55981852499259 13.015283387106876 44.107230361201665
-33.53634098024683 12.841465827137531 41.54699729821035
-31.189460639119208 13.17721899508096 40.0620933022143
-28.69093175168635 12.827950167807998 38.096482852241074
-22.502957862993874 13.644121172833504 38.284628041320246
-15.798234501173804 13.709298176974812 38.82410578823504
-12.863907313113605 13.327441822861152 41.067743209906396
-9.955009292291017 13.79088627474168 42.54382907062739
-9.88630057106883 13.689899197095238 44.04504506751201
-7.949299253386107 13.312620050300012 45.599570867502145
-7.7158414125310575 13.6522809169166 42.62569995477833
-5.317922439513876 12.9838698043666 41.051248706889524
-2.428637466580549 12.419600498046046 40.80424794372031
4.121925032937872 10.602311795053204 38.4379303689899
10.911109838046784 10.161601693754207 40.52021710364557
13.543295075044465 9.191000486358092 40.74750713117034
16.434696731139752 8.76829503438132 42.31928686224775
18.656540827532798 9.145926026439867 43.857172651970075
18.525642253007515 10.102996747843388 45.122688857391054
16.938560687115796 9.366017931618462 45.501882120838694
18.74300742017819 8.563706884381267 42.33400787208145
21.061435557187256 7.790263970925519 40.26382064543329
23.232215894751235 6.017485911217108 38.073955813592995
27.11460866236771 5.299466544198108 37.530701174229016
31.253252630520308 5.013001399625367 39.18954907929382
34.86919843501573 3.4197333107766164 39.21099546790038
38.20380495191347 1.4974267006406592 36.99541587183217
40.0937842904385 1.4821574856135935 36.58350460590099
41.72589005446619 0.007519122963936359 34.09935066794669
43.70388542296209 -0.7838944861322119 31.29855423898316
43.01753538187932 -2.8984476174060596 25.11305814717594
41.63816948134411 -4.699817927251314 18.371220199034518
39.24174032442811 -4.253655026747822 15.941399044119667
35.991706274460675 -4.0523893654282315 13.378415135906227
32.67961731671519 -2.381200068628194 12.84384778800626
26.586758514629267 -0.8564118465107876 10.477227585508295
21.087385496093884 1.3144802734394052 10.660829121349586
18.781836586576595 3.1223008034081543 13.075036442824924
16.37315633427013 4.522895630402396 15.896654588648031
14.62481537587108 6.41188725838856 18.507372385960768
14.600369246891944 6.597987984083751 22.439763268155303
16.95370667321437 6.092190235308237 26.288454127896618
17.589486445801153 7.030976841804651 30.09081727448511
15.920489447957067 8.524424705125455 34.021894003743334
15.669744252164472 8.12290412559121 35.91482518942813
13.462890135127509 9.248646361626756 38.17266037865961
4.5071924255779665 11.419154721653971 40.90822153867442
-5.245101701443519 12.94737454669837 38.32600286639478
-8.11898522696843 13.228236969539461 35.42365884532294
-10.690127423782151 12.747955471750814 33.087000167303195
-11.149821452799426 13.136384444789647 29.286872682672957
-9.145434371389001 13.087463209757374 25.377480676258262
-9.333246238820779 12.410391688099592 21.545810806529452
-11.926495982587944 12.117755533529632 17.773777930113003
-12.162534663363934 12.711371360536086 15.907404918639982
-14.920854105837865 12.418512760349808 13.643481246044397
-17.579811034052604 13.06563155400481 11.273904952632424
-21.488450454219247 12.694478516172708 11.258756060284194
-25.19169959461641 12.388470824950915 13.747926197671806
-29.049134552464807 12.972739774749526 14.101527636955298
-33.03408699384955 13.472332669432518 11.95902215673873
-34.87063967609449 12.869105797583273 11.858568821711735
-37.255823711594104 13.07027149542854 9.429989598226589
-40.51991852738755 11.19645028956127 0.49427422922816144
-38.18967941208511 9.985518132994974 -9.263321803993396
-34.90503280614546 9.74392731364445 -12.465862483584784
-31.217737711877593 9.451914667934412 -13.25670574014467
-25.807252509283316 8.335294045459442 -16.147049664615274
-19.97222256481464 8.321593477988861 -16.602057525491528
-16.990236479690513 8.520510346046189 -14.287589713143408
-13.973430193741514 8.869234671580472 -11.680643471083442
-11.612199240218516 8.354668084911111 -8.881669869861621
-11.049535912557923 9.679966619252228 -5.193930008757928
-12.941640046022528 11.202755178536833 -1.3106382776492143
-12.920915850113165 11.38680109717372 2.667431374991445
-10.455307019657369 11.219760644103758 6.498594513604825
-10.055031893340205 12.075401915416535 8.251554149760922
-6.830247221326647 11.165431876423282 10.524652211697708
-3.0084926190271517 10.40697128296001 10.717566553850931
2.7897787891598793 9.097042365433424 13.047293254905128
8.305966105222376 6.707133871252201 12.760082553505784
10.928018130646086 5.702613765554673 10.12729756059173
13.288427963733522 3.9123393782817573 7.442632638377575
15.448266889005339 2.587511133477989 4.756857508240838
14.928903477065068 0.7385881422916745 1.3017472675385242
12.229113445309693 0.13230106440990141 -2.311043043279081
12.03598844619928 -0.3841230281047517 -5.074498005848648
11.821654608667757 -1.4266039741926495 -8.122104025954899
13.490056995968558 -3.8857251694312764 -10.483527661371006
15.847840036822628 -6.085806825836175 -12.959715187334936
17.677988712569586 -8.46403064190045 -14.717264402923401
20.33844141218884 -9.179512703067429 -14.882195632560393
23.340609439726013 -10.239492726886644 -14.697759383145758
26.880776721111307 -11.366816794638144 -12.23383200936625
30.251270481780825 -13.31610676345239 -12.018241742457862
32.55374742216327 -15.070383333110545 -14.16031975174748
34.69025497406761 -17.26643688279668 -16.22064368821701
36.55821742527107 -18.607521999792652 -18.598309075275143
35.64299147068912 -21.562423746898943 -24.021925032824498
34.24871879596745 -24.068311673309307 -29.985303773677828
31.750711295947546 -24.045517671007868 -32.598384316282214
28.921280698665882 -24.296614308560027 -35.14145720022805
26.402993340594847 -23.898469581376517 -37.527826708946996
20.29325543681452 -22.743740774860676 -38.07903646672945
13.979642785166712 -20.7658160114898 -38.27673452603052
12.708093272612132 -19.59775172379147 -36.43145879875307
11.293932723271752 -18.432991041282577 -36.320013830190895
9.694012015414934 -17.140165929164315 -33.972799893475525
8.00620804549154 -14.732938276431739 -32.06606992670893
8.118576148292995 -13.846670853048385 -29.502505159923274
8.541461321625098 -12.5170497980752 -26.677090151635877
11.305627206180993 -10.841095674152138 -23.642654100444283
11.66704497624672 -8.536156776988113 -20.548431887497006
9.449595836490388 -6.719525455299907 -18.145134221974864
6.733500524231607 -3.658842874435343 -16.075575617830427
3.287220355041877 -1.8257169597713603 -15.849345248297134
-1.4362509023382204 2.0715182393203864 -14.109576309404908
-6.63360649317778 4.940755522377998 -14.784428554890296
-9.85431610979738 4.720904780851515 -16.78392134380053
-12.640378241762264 5.4460545751636715 -18.688212514293657
-13.048142680641353 4.0898569912748615 -20.06759520098962
-15.702138148948821 2.715302543185065 -23.42315857991738
-15.979350581679673 0.8707846869291794 -26.933744206314106
-14.183711403442096 -2.003151757656862 -29.880410229361043
-14.772107937448638 -4.5679234572342295 -32.89299812175239
-17.470762143300316 -5.627910214476742 -35.321980621711425
-20.351603064798464 -7.204243986172641 -37.22493580204366
-23.180222341576616 -7.686856869526608 -39.01608580856194
-28.65982019509506 -7.93929851446213 -37.958709842234654
-33.69213271249179 -6.560492451355955 -34.95110701278539
-36.92827615691704 -5.6229728715727205 -34.41477618892598
-40.231979331848066 -3.856718875285462 -31.650004205999505
-42.352013441662166 -1.7644701789905923 -29.75558456271342
-42.37355448342275 1.1819790006606528 -24.884535136075126
-39.7304519819519 4.381491260676015 -20.514879541310446
-39.08030590995932 6.989285217969538 -18.129548586929957
-35.203487094876145 8.770549292205265 -15.37606319153989
-31.44933589622931 8.915118951440709 -15.475011264050416
-25.560138698043723 9.300211263460803 -13.730045537837636
-19.838656282732376 8.232365458576766 -14.3227361887957
-17.277102953316792 7.4530139858862015 -16.997075681768084
-14.87397820484037 5.8191822799393496 -18.42821542105348
-15.05662498910209 5.052500028782693 -20.411299402707332
-13.323601635256635 2.393832251883735 -23.472504276009126
-13.960206445550071 -0.05894964733232655 -26.524978569657417
-16.570827053839434 -1.5823017880547943 -29.93292978851451
-16.778386260089032 -3.608634344374972 -33.366127017321006
-14.705522417129766 -5.874159693586177 -35.467679675664876
-12.626789587476706 -8.21573034104024 -37.888952172669214
-10.877104636510623 -10.983328824713055 -39.49614076125396
-5.364409442281324 -13.05792011296406 -40.1052737156399
0.5381714638256057 -14.126081239734518 -38.07829659793884
3.4671861127543573 -15.88782172951455 -37.179531939443514
7.337981766310957 -16.158055400939503 -34.234676529175836
9.796826129476898 -15.968815216568402 -31.60451645301401
10.413042996145895 -14.252853596641167 -29.580628816290854
10.762977351605466 -12.444404583646786 -27.031744857113495
8.949612703774672 -10.275813683904007 -23.66896262423582
9.454525590535889 -8.630148716221138 -20.202325956963413
12.281118716719277 -7.695393088359583 -17.882655628030705
15.242622386908108 -7.418992368463418 -15.23060773620004
18.231293428968186 -7.014091733513595 -13.153054188154368
20.521440225212096 -8.541774808398996 -12.68307323117138
23.278530751056895 -10.125543297958671 -12.485612141146701
26.63973071333127 -12.123580226613972 -14.467875114387022
30.297486900446387 -13.405927586057507 -14.23219055794501
33.03609821897488 -13.836726821525872 -11.740222288331122
36.08877394395289 -13.802406726902877 -9.333947339469681
38.511995366490936 -14.152506660505608 -6.632652018483089
40.02367335740804 -11.161582143211469 -0.8715187534766836
40.769701116699366 -8.091027988930543 5.392689763136155
38.658878161480075 -6.344079088889538 7.9561174819431
35.95114064528254 -3.8444015800986255 10.264845912518206
32.36804755997934 -2.72617759250366 10.658786489482605
27.026576322989662 0.2706860947697731 12.831924573208786
21.54994312792171 2.4918285484753064 12.581372947505612
18.643318986165262 2.7452325442451126 10.19105239279244
15.855440804869396 3.148337960122508 7.428419560963496
13.158297604319813 2.7721093076454224 4.96118212740814
12.764467626644674 1.9465207583773079 1.1357348688736328
14.517613591165002 -0.20806329330004303 -2.518832509434407
13.994851495196 -1.7252890661603482 -4.8432731686588575
13.330193991620197 -3.073535522831387 -7.690442578853731
10.840655678649746 -2.600572918746729 -10.332626633789381
7.1887540674345205 -2.4100781768936126 -13.272479260959752
3.7910173425967173 -0.5945670758124019 -14.007424168965242
-1.888193237048598 0.8970557047796931 -16.379997354114817
-7.376862053150172 3.2859291222989953 -16.18132386339054
-9.308078312531142 5.904021278973613 -14.168457815797959
-11.545057334039267 7.766204086284014 -11.532919713057517
-13.469747870295883 9.656822795386574 -9.051177742946482
-13.483964719085089 10.012859307682518 -5.076561818210933
-11.011566105947054 9.960553388283728 -1.23199103615288
-10.499657011182165 11.082893160961547 2.5659732370525754
-12.399149922216225 12.394214263452554 6.505003570293933
-12.54711105959909 11.926904570632985 8.410152878824361
-14.909959501442815 12.613981665387156 10.822436698057048
-17.47136520932205 12.12886259269645 13.402609185353715
-21.32273709109451 12.792531247541227 13.783938395239787
-25.31131676169936 13.307902808527047 11.598464854847041
-29.20836642824504 12.891314786129941 11.589680259664723
-32.927097088499835 12.587339510373681 14.111854333533632
-34.688151077278306 13.341978399372445 14.407144950391931
-36.64766593130803 12.902886809981574 16.82303896717341
-38.514353461040216 13.352246482555671 19.55266975949461
-37.88543531525869 12.664002224054144 25.828261947548246
-36.75569990826431 12.511587109466413 32.51059205248329
-34.09284555343588 12.858328425173358 35.027629719881695
-31.233052926323296 12.879150733579689 37.69054794324606
-28.652688775907997 13.472479828143165 40.027505444627586
-22.326938081120325 13.004692962267615 40.67614190147452
-15.621963993439863 12.940739907818065 40.73007059361765
-13.12085813319751 13.174344141154142 38.48833593878912
-10.690667084390942 12.985921780863286 35.696272597472294
-8.570625214230041 13.407512126223054 32.98526302436537
-8.739248554253642 12.760690367213224 29.209696971483556
-11.32754227941259 12.502901841782062 25.49493130649427
-11.737183527628622 12.812087867839567 21.59363704361401
-9.723523062476147 12.692233758212438 17.671577543134877
-9.72612742259698 11.84381743354885 15.904342621175092
-6.410330293610266 11.545685281361298 13.483035393664265
-2.886155705180073 10.534688828312918 13.035448838255427
2.5513829767588523 8.587579262863681 10.449707292180163
8.413817416995244 7.251179647084872 10.499127220627914
11.22785881567249 6.297190863619005 13.05396619983272
14.110359788498824 5.885830307134295 15.859645748844592
16.296547833121764 4.886187500445118 18.616765719799236
16.956830802668357 5.925901517705823 22.35005870150366
15.208849003935953 7.607934838050809 26.221158086465056
15.251356714551267 7.71277097375441 30.20448186129938
17.663691534461833 7.049974665306422 34.026939709076494
18.195330795252165 7.800944122662211 35.743077022309954
20.664947715130605 7.041940464798743 37.90257067716895
23.727048483939242 7.2635175128811795 39.73033034858653
27.401517013891446 5.747926666789234 39.749596062086226
30.77766299411958 3.8093660943283965 37.501755413924336
34.59546456089987 3.037645611328215 36.99538161751149
40.05846705227028 1.5231456832487822 39.01845142355459
42.62241866800967 1.2452950351501215 39.718683503275955
42.67123954780022 1.264069660174054 41.19638850584621
44.20141219709308 0.4203937517652889 42.297300545906886
42.95671123321563 1.3655905865736089 42.58316480862287
44.47617543627848 0.5214556357432286 39.64354002070762
45.89283644840597 -0.6890582106050402 38.10628569443737
47.04212134002778 -1.4298826362769148 36.39101197596726
48.579574155357975 -1.539735871530226 36.47845408050713
48.42664669780471 -1.5266288421566117 38.27136048861052
45.778626057390625 -0.9067959980797392 36.34533442497873
44.06384208891129 -0.545645155806072 33.94392339736815
41.62412788247313 -0.8280069392215097 31.529514482154884
41.0374110509133 -1.1500054958568635 26.83581897151508
40.569496683065914 -2.463538476547907 21.06022415488416
40.23127966152878 -3.2198329900834985 18.376068022451328
41.859742238513036 -5.127104165803527 15.872536079740193
43.047160439330156 -6.153345558847278 12.850259657615016
44.360791032502284 -6.977328053499757 12.925516508319033
45.572346447558495 -8.476324865329337 11.217372210756078
45.837512003539004 -7.640410256181502 12.796918885606678
43.13113348162035 -6.793898420889619 10.7332197515607
41.2680101238226 -7.386945314674927 8.282415230839208
37.4678638582617 -10.744223311509355 -0.5980518571214564
38.40947954049301 -14.980459591576368 -9.186688298512307
39.3343674309073 -16.812205114829283 -11.57642680260195
40.62493785983928 -18.249269482093865 -13.54706766120076
42.01530258907188 -18.23077240629122 -13.470690979416142
42.23155365106235 -18.032507433825565 -11.565934336331017
39.00278783025771 -17.79287473798205 -13.701386649064041
36.99239435422991 -18.110357753348794 -16.43806833590905
34.51793423965816 -18.539091580165056 -18.4689991168912
33.59556798372191 -20.278377830163606 -24.361263869278236
32.71701003619814 -22.793815045049698 -30.368995013802987
34.19275802890526 -24.836770058401093 -32.54912816081846
34.93427210403222 -25.85041979973384 -35.04884337207297
36.266935279118805 -26.392686437543873 -34.99618784884738
36.8624165405951 -27.494243918658157 -36.56730707174812
37.59850596432307 -26.85204114200758 -35.15658237236732
34.45392184950075 -26.31094182327094 -36.963778154010235
32.871648279375535 -26.7320359642498 -38.40219370984623
30.855930229853037 -27.063639313022197 -39.7785442888305
30.934958761294766 -27.336261065533478 -41.279504004349405
32.61673657793424 -27.517142045468034 -41.10764177094965
30.883310913079544 -26.315807383735432 -38.641736245376215
28.749928732707147 -24.832540450133465 -37.40989780408948
26.445252150804606 -23.815125402530242 -35.53878514053674
20.774413330590093 -21.35731417229893 -36.127975777543675
14.465997236582192 -19.428960140731746 -36.79344441237577
11.505765235807322 -19.601983921598826 -38.912264108093964
8.915837376949332 -18.88203208200013 -40.64929486276152
8.827153002536685 -19.88583846165739 -41.922727167428654
6.882233928130944 -20.2849347066908 -43.5242536480812
8.860526019814046 -20.62645654072108 -43.159430877074165
7.054963026008053 -18.22207604901594 -41.547959732898406
3.6105466873248826 -16.53839725929289 -40.124025203227475
-4.802060027456976 -11.886655165966099 -37.89272554087195
-13.258131025872462 -9.863347322736933 -39.89643487989473
-18.355909682625384 -10.295878553395067 -42.825737525165366
-18.261595250735677 -10.53161209315004 -44.36502703966303
-16.3845337760444 -11.325289971964429 -44.29795969586444
-18.430254237174825 -9.636785936635391 -41.363875505006746
-20.662769680920494 -8.255798891081964 -39.554653696722816
-22.869546976451524 -7.480248181705022 -36.929613588525854
-28.2794367615323 -6.549918105491203 -36.032090692050325
-34.057867567829454 -7.327165141559888 -36.89525536063754
-37.2806119338732 -7.862919983322101 -36.03099748889624
-40.945410576448126 -8.334265811675305 -36.10384042583252
-41.386135136025196 -9.502310536893503 -37.00820244664124
-43.3060808839463 -10.381609703920361 -36.993198260861575
-42.10402160034415 -10.433814980578045 -37.873053564591785
-42.807377171459294 -7.974773761529224 -35.4888069885165
-43.93954018657255 -7.022750839577857 -34.02691335134431
-46.91063870015103 -5.447201316358274 -33.52535011058222
-45.372733521000654 -6.874524361011282 -33.40333572978967
-43.06122927932115 -9.054792758438728 -36.286452800037644
-16.257329126400965 -10.559028212083314 -42.961609551157444
-10.122026732081991 -9.241438139645538 -38.39174743811306
-0.00576957521927568 -15.511596690514722 -39.74626162505402
7.003357371096328 -19.086369143854924 -42.50729805582779
32.87684932084528 -26.88377898325789 -39.86849825054465
35.672996095948974 -26.76397836158255 -36.81168391239691
40.93320095978353 -17.357985603883442 -11.670758043965852
36.88003708423763 -12.752825150609567 -6.960927580689496
38.62026565947321 -8.133534155535179 5.716369805035995
44.29883468134488 -7.4824925735606485 10.879116007144559
47.15513850345926 -0.8571746392862281 38.3879964442115
44.416811483358906 0.5809481212563791 40.999550612203656
-38.56171852157749 10.768092899539198 -6.574325814591615
-37.63993420980327 12.300011302558389 6.737172740710424
-2.4758033197842244 12.425693338683582 38.64254343456826
10.634701587992055 9.292510697852222 38.559819941527756
16.69437043273232 9.242915028182875 44.010057727499166
-7.813992872241893 13.634634368222047 44.0747669365335
-35.4616472957391 13.051132576361766 42.76903578643385
-38.52771553207351 13.087953431190243 39.954732813449674
-43.133292155195505 12.395817180706985 12.522673409509272
-44.21400363699049 8.870045321750004 -11.383256718905018
-46.57486305300166 -6.991612412880334 -33.06576928217555
-45.66363664963153 -5.469892175996978 -33.02588322493729
-44.20104874543191 -5.327641866445087 -33.2671573832824
-42.749614103577585 -3.5790645868868527 -31.518230294972536
-40.3750210832755 -1.9372785781039568 -29.7464204660026
-39.90011632688616 1.2400970210303857 -25.136869756003087
-41.652690218597186 4.127453002691297 -19.990233393909282
-41.7701112573528 6.184218312498267 -17.020989673138242
-42.99330300679849 7.387405425540391 -13.3982770240228
-44.70409866764029 7.719444956005439 -12.986775160620155
-42.61871319641364 8.346940664298751 -11.453358863732458
-40.98035378205421 9.527099567206976 -8.921864143164449
-40.62684327195012 10.395195344945071 -6.391767229688622
-37.945362339341706 11.781436642886451 0.3062707814786766
-39.65971886391757 11.856721274366748 6.9887401943853895
-39.77984036459837 12.471359610578002 9.621140026388131
-41.566917730437694 12.77195699755159 12.221356841042338
-42.95902872505695 13.184505451045464 14.115970689145522
-44.524168725964564 12.698244179004343 14.307527530354943
-44.43414409649944 11.63082558706812 12.913314985711859
-41.1935994250589 13.038016528390832 14.48931466468985
-39.1713088045507 13.043188331828686 17.060479389825048
-36.56297831271543 13.352715659905698 19.49255811173389
-35.47867819287774 13.262104072744652 25.791436074072546
-34.738484677648444 12.819944373485432 32.348115769980936
-36.59633953539615 13.009880203614973 35.311811937493346
-37.60091888947226 12.83292005623137 37.80558892961201
-38.954461495878434 13.338700021329373 38.222444812072645
-40.11390601831478 13.112859199812231 39.898147969554145
-40.393007089667016 13.48420814916788 38.437847340137054
-37.00400831834279 12.896197662683704 39.7048446390196
-35.73515612047401 13.162038796730537 41.589459850499885
-33.944064093654035 13.153647834450322 42.93072439790571
-33.504982133911625 12.654162115844263 44.08780716198233
-35.1927884921486 12.684044023834048 44.07297597217157
-33.60162466926759 13.165301196037356 41.49763722803504
-31.134601984368086 13.162933844115532 40.10242573289797
-28.678566461952713 13.51802964500196 38.11441681253297
-22.410215841396806 13.647710440537754 38.30169846702146
-15.837600676033508 13.237167888827164 38.72223824382426
-12.7570048936512 13.339391670942229 41.02546787909766
-10.037235941799523 13.262017485459964 42.78326814119959
-9.739142683330732 14.058473040987385 43.98740700156639
-7.881237635113178 13.86982319488663 45.548114531882405
-8.03355000820955 13.213414312192487 42.542201287794434
-5.20077450683614 12.983326635820152 41.09642838471026
-2.341722908449313 12.91303486152007 40.67684377879347
4.2168125032988035 10.585396403980244 38.42549477964398
10.84058658105269 9.406639149735739 40.5585314256087
13.599585293918256 9.167023703066157 40.7132318945433
16.329744124539086 9.207552719665529 42.44347272702195
18.443106798684266 9.665325443392174 43.67830453521051
18.66640465237623 9.613811061030578 45.32569789405589
17.06164003932105 8.837129008205608 45.48940263624816
18.629051674280152 8.939868758103955 42.070384937671385
21.124295130679084 7.774080461120979 40.30137397702328
23.509274015314247 6.686250812219129 37.845630422716816
27.1459776470871 5.1101747631777625 37.5739714128568
31.146027333814658 4.293032199099045 39.40729438084812
34.988234211719075 3.55517339750353 39.15880741744027
38.49241166529983 2.160525998713581 36.828303047171495
40.05591363817059 0.9901183098637603 36.74897233374178
41.68516990099201 0.02166949368002623 34.049733998211735
43.498643110395875 -1.4702738618924514 31.390749569842345
42.9888803346609 -2.916575826566156 25.02956728120461
42.100801111669284 -4.312981345473901 18.17641172567789
39.25572736846492 -4.309401579136517 15.841048544463385
35.9971617844758 -3.870987770425081 13.40360220606859
32.433239593635705 -2.834104043534817 12.794897250306532
26.46824158963386 -0.9466082911446541 10.489763374552592
21.293230540490594 1.7850836630233478 10.469220155666678
18.668886372001687 3.146821250009947 13.03683206160466
16.42200827209656 4.532641518214361 15.942357908102473
14.34219447781544 5.690555359175676 18.72347571850914
14.669809468841818 6.782114776257068 22.48310020876838
17.234779409042204 6.861711899589437 26.25175309829972
17.536627723187376 6.863147981043153 30.201783837526158
15.656445045184654 7.780309108391592 34.19401379717316
15.921265098303508 8.60494095022913 35.94906676943652
13.398419690107046 9.237874915682578 38.13768978568773
4.412062381268834 11.438459659500168 40.89764687448084
-5.348379401048964 12.993895743446569 38.36504904393304
-8.169810019672306 13.250109361113033 35.379865857965214
-10.67477686983188 13.525805318960124 32.986264857753376
-11.164970234526292 12.951132511043781 29.216495245138788
-9.20446261016145 12.295219647933791 25.330408670181843
-9.322194517388466 12.590926121645738 21.456466696287652
-11.862400174899463 12.906974589706579 17.636717241446252
-12.137449221991593 12.155494897346975 15.830711266104233
-14.967161166367465 12.401477746683833 13.591904657633151
-17.705889701091074 12.244664033738133 11.241604178455493
-21.56090949676232 12.886583086100655 11.27258108645678
-25.279010967591645 13.211100179572952 13.802260995649494
-29.130979453851538 12.785505988399064 14.09373446871487
-33.13923315686285 12.67076500810856 11.924590207678126
-34.94309007824922 13.40305068781914 11.963103139294391
-37.22344987359704 13.053893247974203 9.368680378276265
-40.49071718552082 11.199147057794654 0.4081877320501187
-38.230602284072305 9.955986416190928 -9.372178428031045
-34.80438656584905 9.54435600617651 -12.37944774139087
-31.23115490365807 9.93364201075022 -13.516716547777365
-25.705095840793753 8.450534503503588 -16.206997476615182
-20.03754849994634 7.79180047237935 -16.479574656797976
-16.88335455936033 8.507804460402554 -14.335013173124363
-14.01064987153444 8.872334431512076 -11.621185800122403
-11.410167329992149 9.12270758566413 -9.023271464793066
-11.08486022319886 9.519343008600824 -5.076146726830748
-13.107451938565845 10.432289860592888 -1.070948613300064
-12.876159868391312 11.583214422564268 2.7174648531540084
-10.296049869465278 12.015417673553003 6.496362214855527
-10.227791070488712 11.565814772257985 8.417909325277504
-6.69965749812812 11.343574543922488 10.446245316255576
-3.148129587421053 9.898531358271205 10.886647997033835
2.849340753295316 8.937879751433616 13.064752811561188
8.489532092636713 7.235208891933648 12.75605705017759
11.036889887403097 5.655878954973173 10.169832889607331
13.25527112782599 3.9296256029961243 7.387047039785776
15.11953196594257 1.8656546579455835 4.974563316465851
14.999933335525057 0.8708071547550527 1.158711442522003
12.586295103410464 0.7690718044384681 -2.6904672598237727
12.057470987829209 -0.4311960811122591 -5.1794725126135015
11.509674527690558 -1.818054256054495 -7.9024956646994085
13.440693193188798 -3.8937650240223944 -10.586451603715444
15.894318633171611 -6.106989539571719 -13.011132792614742
18.021516827176413 -7.847057392082931 -15.043448317137827
20.4448805565723 -9.204166993189808 -14.853921363329802
23.143332711205108 -10.694988196617524 -14.563729492108733
26.89416249698035 -11.598685034089414 -12.170849332727174
30.46606273842905 -12.857663097183897 -12.155864401177494
32.64209233834104 -15.110486376574068 -14.109807147178307
34.65479842174731 -17.25732220959706 -16.280981525329235
36.324398399654484 -19.215794706226163 -18.405380160147143
35.61668424414943 -21.59487965270614 -24.104937891481864
34.46271174100901 -23.69818872692946 -30.158741369668416
31.756847895839304 -24.109093150796205 -32.682113510887845
28.88369728685317 -24.25300421130241 -35.11624862763216
26.1671962666111 -24.474655178490742 -37.29028686328479
20.209020295098462 -22.718626513686626 -38.07060696253787
14.111397514886173 -20.384638372152526 -38.545145244502756
12.72261119046864 -18.93394091683986 -36.70513308131737
11.057697587146137 -19.031891276386013 -36.13171860977915
9.737975356981327 -17.112505350160298 -33.94299104387383
7.803374606762034 -15.330228402773102 -31.628448573718067
8.15765838205872 -13.808533628596548 -29.39640990099998
8.618924157962274 -12.0603029105827 -26.946104031774194
11.334767209555132 -10.60536841268941 -23.667247073037306
11.633812562323167 -8.992235735833901 -20.261099500321883
9.499132908976787 -6.662231141152193 -18.052139343078395
6.568287720662492 -3.8018113793508537 -15.999272958984609
3.533376948957217 -1.3770780853908018 -16.048860481894717
-1.4786887477562733 2.2239930697145667 -14.180880866993636
-6.8132330725335875 4.547920610509398 -14.429457171226163
-9.950151003122832 4.800292134969618 -16.75192074851329
-12.909264924307124 4.753736297551399 -18.441333179175597
-12.94327385629073 4.534170941000515 -20.34382720568423
-15.671285843495191 2.834102913806686 -23.629465257117587
-16.091179251470184 0.43385037600093784 -26.64617361330647
-14.247319667458859 -2.2436495585202065 -29.84729074680408
-14.647570274814774 -4.145451954314656 -33.21411131968853
-17.439744760698307 -5.7015881997006606 -35.39793140084894
-20.396162413926444 -7.173005250371341 -37.18727014860128
-23.25058938161942 -8.339059216779134 -38.71148533854296
-28.742954591127663 -7.858481332253537 -37.99337344031204
-33.8417934573641 -6.063437128736169 -35.43975327313048
-37.01040558036797 -5.7667931567802135 -34.31312237852806
-40.19611924175885 -3.8102956143478934 -31.61243193676535
-42.40781288229072 -2.29010328378358 -29.249417393915568
-42.37793744688931 1.304574585122836 -24.882563224638012
-39.95191723773206 5.034663281975952 -20.855919940596475
-39.05616387238869 6.883717089338116 -17.95092390486142
-35.124463737804355 8.954261770876991 -15.497167148988492
-31.448788997187794 8.445520664175746 -15.205223957694635
-25.461213685822333 9.167241869171097 -13.694789857734573
-19.797692106854687 8.756162288835384 -14.42290431830615
-17.158836794168998 7.435429675336229 -16.962669491532104
-14.893566105097232 6.297475735662232 -18.90735395434306
-15.163206273089457 4.607918206829481 -20.13180276135572
-13.380252547365085 2.152649140383306 -23.45356516772922
-13.847423169462616 0.36864347174606377 -26.839345971620784
-16.53410617957973 -1.4773612097272253 -30.150003710071793
-16.895834521183946 -4.029948322899884 -33.04593469483243
-14.761430682277654 -5.9295664300891415 -35.56721276620494
-12.563041977492231 -8.234386055473799 -37.84524553009174
-10.543332047825736 -10.466217372733112 -40.01414568851469
-5.325730137500261 -13.172589957586508 -40.05073068775629
0.29757871144898473 -14.84180412560768 -37.80710864551207
3.6243250630405424 -15.822098625070026 -37.32653092165908
7.301057804869856 -16.130460191995468 -34.17976238821713
10.00088673490609 -15.312971917890977 -31.9565471171422
10.399933640649204 -14.1814658731666 -29.495541453715315
10.715740069940486 -12.877561255048866 -26.737057529393123
8.935456371151492 -10.398768286944561 -23.46224739973528
9.532459874820603 -8.193017836021047 -20.491194156462594
12.246222766306886 -7.645651574600521 -17.78279759534237
15.282599779279941 -7.440870030019614 -15.270824333884939
17.97146859359799 -7.6753584057379385 -12.823710242363912
20.616409617268292 -8.60304037602556 -12.70718969908927
23.50652506626132 -9.674438147823716 -12.62345569310137
26.828151461371554 -11.983740264510734 -14.51450813868295
30.081903826693168 -13.863598478875494 -14.10342158171185
33.136721455147736 -13.87610332687986 -11.78108288781112
36.05208583345682 -13.783178614439736 -9.276809186801128
38.81272520009327 -13.480784165631661 -6.862212546258977
40.02149704262115 -11.11894819648263 -0.7942471230459649
40.68331586369565 -8.561504320047655 5.621331339855268
38.71015383645929 -6.289739036190724 8.049860652403094
35.807321963496335 -4.010439279972404 10.306833268569788
32.46889295337517 -2.361154228790736 10.569226045302544
27.00236719501588 0.41911032719007413 12.818333275656318
21.372068381725086 1.9941151559350487 12.763466715139934
18.546169496871478 2.8056673399743604 10.223453052706883
15.880801853985304 3.0951658150826877 7.384017960691391
13.466107581329098 3.442123585352661 4.609937521233949
12.674931072817037 1.760267322113288 1.1249982907540212
14.148237668811163 -0.9024733421110653 -2.259982789677746
13.947988044973359 -1.7578508659985372 -4.945865434638218
13.639083629079712 -2.6791443243797346 -7.908276463732602
10.961672259362697 -2.7194423101002645 -10.468414661056848
7.216980297872343 -2.1805062450167516 -13.359746948679371
3.548793666432791 -1.0671542984392584 -13.810603272001773
-2.0349446774223408 0.8426592630641822 -16.315132749339043
-7.18185266563827 3.680365604157155 -16.540301103927856
-9.424203317139662 5.9140098862150525 -14.19449787563813
-11.490577933331586 7.7846577319994 -11.49170737771589
-13.689901634916566 8.912844551752372 -8.790566841533344
-13.434539349039133 10.209358955298711 -5.047290756374173
-10.833333414711248 10.76321668618975 -1.2842238301799287
-10.529563306624524 10.912425278340494 2.6787916139250205
-12.545440918069389 11.607547966562365 6.6611050163199685
-12.379570159935165 12.462473318286433 8.465450630733658
-14.96367032851637 12.603069919959522 10.780139451128578
-17.52993100904896 12.954308762093177 13.453903926505593
-21.412662031377494 12.605885629929046 13.777344293157057
-25.421797088180334 12.495273471517564 11.544900231216705
-29.277919074423117 13.084758651179362 11.6080015392764
-32.98377007439938 13.403602981668755 14.156433864769259
-34.820370891377415 12.791974211273091 14.303365822782082
-36.59941066820034 12.914328983321496 16.878574861882502
-38.5167659995795 12.651830194989728 19.62386789230928
-37.86167378908561 12.659983049053046 25.91763887493733
-36.84311493139017 12.992058012624284 32.49823598588445
-34.11393148359589 12.841888085164948 35.136964285217246
-31.193418473164208 12.900008933683939 37.65526361825668
-28.54443592034969 12.785144812488753 40.01494051523493
-22.239524258159364 13.005021497317415 40.66996025906424
-15.61830012084945 13.413866091039003 40.81120613927747
-13.0077537430445 13.151862371276376 38.52552207634378
-10.732155203995774 13.003185687828893 35.652333419572514
-8.58628069484022 12.631713049921686 32.94489736045343
-8.737910768719354 12.937798680685013 29.121087407632302
-11.270982937467082 13.290546215950059 25.35478101577883
-11.759815328946676 12.620654765037047 21.526874287261208
-9.807185146872108 11.889986751505234 17.648392901879607
-9.756478968932734 12.37960193204943 15.76177608992681
-6.367595908515128 11.32176486886228 13.480823429294224
-2.7680158384644784 11.05405237765126 12.844431415371401
2.6888755175762715 8.683698970716843 10.428638586941187
8.2090866660117 6.713604793729947 10.499841275009642
11.345119814394005 6.272639820293051 13.017418865394191
14.071818457233194 5.896727623858957 15.921017302276963
16.60690093482934 5.633472762658499 18.53827975133567
16.9024310227883 5.762455138260425 22.45679686256592
14.936152945144173 6.871962580074538 26.4411211839672
15.325510220037014 7.89931695258274 30.256397571095764
17.932712659893397 7.804201604633121 34.02053641471249
17.95239143542914 7.337846443184541 35.9135932465439
20.719983397381363 7.027384518499691 37.852414210374214
23.626754509309364 6.548137666780633 39.98035926428819
27.519144521660216 5.889240040167838 39.684954196053866
31.055554192154787 4.474742398328118 37.292633280453096
34.62381187968386 2.852985041769903 37.034193555021204
40.31524526707187 1.922590420373109 38.61234529709128
42.271764309886564 1.0087107660557593 39.93570598815289
42.91688046993624 1.497764047040268 41.14395600984563
44.62047035014821 0.7362386225607906 42.263642577077256
43.17224539740712 1.7562789644881776 42.44242866304673
44.08929718452718 0.2669596110079112 39.57192868979162
46.12338743856472 -0.3850254553649819 38.5825361928461
47.22654803626831 -1.052269210039725 36.58184380324453
48.39099928537436 -1.9528026584221863 36.5618303363294
48.24237059911934 -1.8997571516325138 38.37653866486669
45.827370579920135 -0.5580102737902545 36.39468926176998
44.09519572437717 -0.5750750227674359 33.88932851628214
41.84933360098472 -0.16373004739511998 31.3042079349427
41.06878353605812 -1.178431315084442 26.756441773330188
40.42962531787292 -2.4007603533441237 20.911126106166225
39.97796234229033 -3.6191389218196264 18.57568958683689
41.688221838607625 -5.11932787432815 15.758134002681743
43.00742566766057 -6.739618113452607 13.039165475083767
44.475388430356624 -6.633213761203251 12.72024759811812
45.792247692464926 -7.945841444153013 11.02263531494186
45.95097793532045 -6.976108205515374 12.652505207731574
42.814290229342376 -7.236259642512351 10.973784226174107
41.293504618890154 -7.440258772120609 8.171196369707264
37.44242465435523 -10.772191648260598 -0.6899084858688617
38.3581706190571 -14.98892183275047 -9.23213496651912
39.65096528835526 -16.519477524845986 -11.632756893271257
40.87862270446156 -17.60944346233464 -13.314278545762942
41.848539829607056 -18.695773031046343 -13.406613035435758
41.944118259575205 -18.447862797787185 -11.5262938615875
39.04320458742027 -17.367736474271435 -13.777322977899642
36.92313975342736 -18.00737817003628 -16.519558759979915
34.77454514611135 -17.981597632226126 -18.7868864374141
33.591610836568 -20.315503602991424 -24.44321974788762
32.477687451162275 -23.153303229454476 -30.176254165678575
34.13320068045404 -24.847552940785157 -32.6621963241886
35.01995906105083 -26.167118268098598 -34.76352094556416
36.32836937458473 -26.13282197190163 -35.16128228145025
37.07176021485335 -27.071927557398094 -36.655358640687965
37.624196644625705 -26.307457603758557 -35.270906353834576
34.28407985226746 -26.555743292935727 -36.65515882981301
33.00475301575506 -26.467064607201085 -38.542069004268875
31.300836594032567 -26.81218781223967 -40.01763161311027
30.89195969913223 -27.742099827199013 -41.10115806729873
32.754527565753634 -27.85163278652962 -40.89790912986325
31.001473356096756 -26.027816504783306 -38.767773649864054
28.696685749101633 -24.85311515829645 -37.44993189011672
26.576264069309758 -23.204355447242236 -35.79994427412745
20.688613818974652 -21.334126318022854 -36.14819605393767
14.371017093997304 -19.83740560188716 -36.53498443724435
11.41599691728293 -19.543395581139215 -38.88659780825352
8.925748595413404 -19.398015864334923 -40.51847600049206
8.896983183956493 -19.557194193259217 -42.140662983990886
7.167968269836598 -19.88997650508214 -43.81460419682516
8.888760414785196 -20.079289159940465 -43.422526623877594
6.8302000842866235 -18.58742994011775 -41.13030188521778
3.5730624165774767 -16.36145532253809 -40.251169431034874
-4.916955245486775 -11.931704642217754 -37.842323325308506
-13.30708975499661 -9.829346019810897 -39.85313490547758
-17.958590385079468 -9.855258956664438 -43.065009621490375
-18.51987420898816 -10.970872444937338 -44.1769157269679
-16.64739042853118 -11.710797769474055 -44.012829697890886
-18.260951991860022 -9.213737534279298 -41.43056825905858
-20.717532683435095 -8.277042511240182 -39.57502038778896
-22.96301651205313 -6.819160712613723 -37.23152741425232
-28.34863264677921 -6.622639312083139 -35.96208596709436
-34.04722957701019 -7.8273932919061195 -36.41680802509543
-37.39513264818501 -7.710994051850744 -36.07669921255709
-40.749400688239724 -8.806060995298385 -36.048975589580905
-41.54774415643397 -9.220096052582724 -37.178475548908246
-43.31965114040702 -10.089659251854226 -37.38787424080419
-42.07367316512295 -10.052181963696006 -38.1874668814613
-42.486075887126944 -8.18222755921293 -35.21659993958745
-44.12227912739879 -6.996430212663114 -34.31912153795553
-47.06438325870715 -5.391497728429044 -33.16317495044235
-45.45637389963998 -6.906418133553217 -33.86546687090987
-42.893935766826246 -9.327559464537908 -36.123510434961055
-16.67063561100328 -10.986434576967003 -42.699149441837655
-10.304379607535303 -9.833010909486802 -37.87506716578497
0.3568265543360525 -14.869934286122685 -40.04133386495335
6.925715136160325 -19.42430291207994 -42.29910427196631
32.3972560033161 -27.219613680588132 -39.78722344256109
35.626421200397346 -27.019062368631456 -36.64089558280749
40.644334943546276 -17.870834290694575 -11.711404114892158
36.63946152124629 -13.386599137738742 -6.595035337537123
38.68394763099573 -7.672266893926424 5.453482800467023
44.194880588198224 -7.801941140476458 11.11681350573066
47.00989807573569 -1.2484458971534138 38.17071739830791
44.17558276567119 0.35920433059026396 41.0638121458799
-38.51897451533653 10.251696515541388 -6.416883684499033
-37.83133115382916 13.072324421735416 6.763679178121539
-2.6068797213392827 11.94182229184569 38.77536398667345
10.850702647907397 10.03434653060826 38.5117242336236
16.916704993900815 8.690834981860808 44.00808118857485
-7.980481020043787 13.262783438926647 44.14181587102499
-35.13511489736601 12.667888630814213 42.763300225855325
-38.56607078756723 12.762587150690905 39.83811897795574
-42.926941944011624 11.921376503804805 12.840325299293145
-44.292331533374984 8.466315941864062 -11.26189882738454