-46.6609165118864 -6.956848199847525 -33.24295258597871
-45.62202252991749 -5.474166702226666 -33.26912962560168
-44.27723358929734 -5.3533331157014645 -33.09184517420021
-42.732320711978055 -3.5976488163594498 -31.545589928218206
-40.40802334199128 -2.243726784338037 -29.554068958164645
-39.90837777041334 1.2534774856738966 -25.195751711406153
-41.759881925572685 4.417743820571729 -20.212138904740087
-41.7751347099031 6.078866082682387 -17.0188226730228
-42.981805722232046 7.660135858737232 -13.443837504198513
-44.629694090157784 7.593306091448483 -12.903767397154521
-42.65624696763695 8.622321500248365 -11.475946338594394
-40.910715316396406 9.53885366137361 -8.990323152429102
-40.610476110297604 10.12350542298699 -6.369921500163257
-37.96428708189754 11.768053178732616 0.27049966878793325
-39.77237661811251 12.228474370800917 6.903796086762979
-39.8018078969354 12.467157531335856 9.593803065138353
-41.43948615791454 12.592286348218588 12.306617459433703
-42.960540767244154 12.949438190676256 14.279320163582545
-44.506688585449595 12.936573273064976 14.200550118900342
-44.53036736649206 11.866169332505518 12.813569754714567
-41.258741253584944 12.843061742900531 14.579410114383505
-39.158893654514934 13.049776480664578 17.03051227180366
-36.56704957898495 12.992346675408172 19.458561149177275
-35.47946376489368 13.262311873313864 25.74539455519552
-34.78478698778259 13.064403680698822 32.35649355094539
-36.627310030124 12.998207188863773 35.25784238039121
-37.50774931908726 13.02584001605491 37.908646041516135
-38.95493269596213 13.17471801783993 38.17101538420848
-40.07264217803801 12.874674063691163 39.93889371871507
-40.41139538710955 13.233750158179083 38.500016130590474
-37.0526668008528 13.08591399652326 39.827710786086286
-35.613302969226126 13.002236415173746 41.503395494288256
-33.776832198224994 12.961499424664897 42.89321567369563
-33.576501876731164 12.82428729528446 44.09923356677052
-35.3763035085706 12.849663705470462 44.090103166686625
-33.56898282475721 13.003383511587444 41.52231726312271
-31.16203131174365 13.170076419598248 40.08225951755614
-28.68474910681953 13.172989906404979 38.10544983238702
-22.45658685219534 13.645915806685627 38.29316325417086
-15.817917588603656 13.473233032900987 38.773172016029655
-12.810456103382403 13.33341674690169 41.046605544502036
-9.99612261704527 13.526451880100822 42.6635486059135
-9.81272162719978 13.874186119041312 44.01622603453921
-7.915268444249643 13.59122162259332 45.573842699692285
-7.874695710370304 13.432847614554543 42.583950621286384
-5.259348473175008 12.983598220093375 41.073838545799894
-2.385180187514931 12.666317679783058 40.7405458612569
4.169368768118339 10.59385409951672 38.43171257431695
10.875848209549737 9.784120421744973 40.539374264627135
13.57144018448136 9.179012094712125 40.73036951285682
16.382220427839417 8.987923877023425 42.38137979463486
18.54982381310853 9.40562573491602 43.7677385935903
18.596023452691874 9.858403904436983 45.22419337572349
17.000100363218422 9.101573469912035 45.49564237854344
18.68602954722917 8.75178782124261 42.202196404876425
21.09286534393317 7.782172216023249 40.282597311228294
23.37074495503274 6.351868361718118 37.959793118154906
27.130293154727397 5.204820653687936 37.552336293542915
31.199639982167483 4.653016799362206 39.29842173007097
34.928716323367404 3.487453354140073 39.18490144267031
38.34810830860665 1.82897634967712 36.911859459501834
40.07484896430454 1.2361378977386768 36.6662384698214
41.70552997772911 0.014594308321981296 34.07454233307921
43.60126426667898 -1.1270841740123316 31.344651904412753
43.0032078582701 -2.9075117219861077 25.071312714190274
41.869485296506696 -4.506399636362607 18.273815962356203
39.24873384644651 -4.281528302942169 15.891223794291529
35.99443402946824 -3.9616885679266565 13.391008670987416
32.55642845517544 -2.6076520560815055 12.819372519156396
26.52750005213156 -0.9015100688277209 10.483495480030456
21.19030801829224 1.5497819682313765 10.565024638508131
18.72536147928914 3.1345610267090507 13.055934252214792
16.397582303183345 4.527768574308379 15.919506248375258
14.48350492684326 6.051221308782118 18.615424052234953
14.63508935786688 6.690051380170409 22.46143173846184
17.094243041128287 6.476951067448837 26.27010361309817
17.563057084494265 6.947062411423902 30.146300556005627
15.78846724657086 8.152366906758523 34.10795390045825
15.79550467523399 8.36392253791017 35.931945979432335
13.430654912617278 9.243260638654668 38.15517508217368
4.459627403423401 11.428807190577066 40.90293420657762
-5.296740551246242 12.97063514507247 38.34552595516391
-8.14439762332037 13.239173165326246 35.40176235164408
-10.682452146807016 13.136880395355469 33.036632512528286
-11.157395843662858 13.043758477916708 29.251683963905876
-9.174948490775225 12.691341428845583 25.353944673220052
-9.32772037810462 12.500658904872664 21.50113875140855
-11.894448078743704 12.512365061618105 17.705247585779627
-12.149991942677763 12.43343312894153 15.869058092372107
-14.944007636102663 12.40999525351682 13.617692951838773
-17.64285036757184 12.655147793871471 11.257754565543957
-21.524679975490784 12.790530801136681 11.265668573370494
-25.235355281104027 12.799785502261933 13.775093596660648
-29.090057003158165 12.879122881574297 14.097631052835096
-33.0866600753562 13.07154883877054 11.941806182208426
-34.906864877171856 13.136078242701208 11.910835980503064
-37.23963679259557 13.06208237170137 9.399334988251427
-40.5053178564542 11.19779867367796 0.45123098063913936
-38.21014084807871 9.97075227459295 -9.31775011601222
-34.85470968599725 9.644141659910478 -12.422655112487826
-31.224446307767824 9.692778339342317 -13.386711143961017
-25.75617417503853 8.39291427448152 -16.177023570615223
-20.004885532380488 8.056696975184105 -16.54081609114475
-16.936795519525425 8.51415740322437 -14.311301443133882
-13.992040032637977 8.870784551546274 -11.650914635602923
-11.511183285105332 8.738687835287621 -8.952470667327345
-11.067198067878394 9.599654813926527 -5.135038367794339
-13.024545992294186 10.81752251956486 -1.1907934454746394
-12.898537859252237 11.485007759868992 2.692448114072724
-10.375678444561323 11.61758915882838 6.497478364230174
-10.141411481914458 11.82060834383726 8.334731737519212
-6.764952359727384 11.254503210172883 10.485448763976645
-3.0783111032241024 10.152751320615607 10.802107275442383
2.8195597712275977 9.017461058433518 13.056023033233162
8.397749098929545 6.971171381592924 12.758069801841687
10.982454009024591 5.679246360263923 10.14856522509953
13.271849545779757 3.920982490638941 7.414839839081676
15.283899427473955 2.226582895711786 4.865710412353344
14.964418406295062 0.8046976485233636 1.2302293550302636
12.407704274360079 0.45068643442418477 -2.500755151551427
12.046729717014244 -0.4076595546085054 -5.126985259231077
11.665664568179158 -1.6223291151235724 -8.012299845327155
13.465375094578679 -3.8897450967268354 -10.534989632543226
15.87107933499712 -6.096398182703948 -12.985423989974839
17.849752769873 -8.15554401699169 -14.880356360030616
20.391660984380568 -9.19183984812862 -14.868058497945094
23.24197107546556 -10.467240461752084 -14.630744437627245
26.887469609045827 -11.482750914363779 -12.202340671046707
30.358666610104937 -13.086884930318144 -12.087053071817678
32.59791988025215 -15.090434854842306 -14.135063449462894
34.67252669790746 -17.26187954619687 -16.250812606773117
36.441307912462776 -18.911658353009408 -18.501844617711143
35.629837857419275 -21.578651699802542 -24.06343146215319
34.35571526848823 -23.88325020011938 -30.072022571673116
31.753779595893423 -24.07730541090204 -32.64024891358503
28.90248899275953 -24.274809259931224 -35.1288529139301
26.285094803602973 -24.18656237993363 -37.40905678611589
20.251137865956494 -22.731183644273656 -38.074821714633664
14.045520150026443 -20.575227191821163 -38.410939885266636
12.715352231540386 -19.265846320315664 -36.56829594003522
11.175815155208944 -18.732441158834295 -36.22586621998502
9.71599368619813 -17.126335639662308 -33.95789546867467
7.904791326126787 -15.03158333960242 -31.8472592502135
8.138117265175858 -13.827602240822465 -29.449457530461622
8.580192739793686 -12.28867635432895 -26.81159709170503
11.320197207868063 -10.723232043420774 -23.654950586740785
11.650428769284943 -8.764196256411006 -20.404765693909443
9.474364372733588 -6.690878298226051 -18.098636782526626
6.65089412244705 -3.7303271268930986 -16.037424288407507
3.410298651999547 -1.601397522581081 -15.949102865095925
-1.4574698250472469 2.1477556545174767 -14.145228588199267
-6.723419782855683 4.7443380664436985 -14.60694286305823
-9.902233556460107 4.760598457910566 -16.767921046156907
-12.774821583034694 5.099895436357535 -18.564772846734627
-12.995708268466041 4.312013966137688 -20.205711203336925
-15.686711996222009 2.774702728495875 -23.526311918517482
-16.035264916574928 0.6523175314650587 -26.789958909810284
-14.215515535450482 -2.1234006580885345 -29.863850488082566
-14.709839106131705 -4.356687705774443 -33.053554720720456
-17.45525345199931 -5.664749207088701 -35.359956011280175
-20.373882739362454 -7.188624618271991 -37.206102975322466
-23.21540586159802 -8.01295804315287 -38.86378557355245
-28.701387393111368 -7.8988899233578325 -37.97604164127334
-33.766963084927944 -6.311964790046062 -35.19543014295794
-36.9693408686425 -5.694883014176467 -34.36394928372703
-40.21404928680346 -3.833507244816678 -31.631218071382424
-42.37991316197644 -2.027286731387086 -29.502500978314494
-42.37574596515602 1.2432767928917445 -24.883549180356574
-39.84118460984198 4.708077271325983 -20.68539974095346
-39.068234891174 6.936501153653827 -18.040236245895684
-35.16397541634025 8.862405531541128 -15.436615170264183
-31.449062446708556 8.680319807808226 -15.340117610872525
-25.510676191933022 9.233726566315948 -13.712417697786103
-19.81817419479353 8.494263873706075 -14.372820253550925
-17.217969873742895 7.444221830611215 -16.979872586650092
-14.883772154968801 6.058329007800791 -18.66778468769827
-15.109915631095774 4.8302091178060875 -20.271551082031525
-13.351927091310865 2.2732406961335205 -23.463034721869175
-13.903814807506343 0.1548469122068686 -26.682162270639097
-16.552466616709587 -1.5298314988910098 -30.041466749293154
-16.83711039063649 -3.819291333637428 -33.206030856076715
-14.73347654970371 -5.901863061837659 -35.51744622093491
-12.594915782484469 -8.225058198257019 -37.867098851380476
-10.71021834216818 -10.724773098723084 -39.75514322488433
-5.345069789890793 -13.115255035275284 -40.0780022016981
0.4178750876372952 -14.483942682671099 -37.94270262172546
3.54575558789745 -15.854960177292291 -37.25303143055128
7.319519785590407 -16.144257796467492 -34.20721945869648
9.898856432191494 -15.64089356722969 -31.780531785078107
10.40648831839755 -14.217159734903884 -29.538085135003087
10.739358710772976 -12.660982919347825 -26.884401193253307
8.942534537463082 -10.337290985424284 -23.565605011985546
9.493492732678247 -8.411583276121092 -20.346760056713006
12.263670741513081 -7.670522331480052 -17.83272661168653
15.262611083094026 -7.4299311992415165 -15.250716035042485
18.101381011283088 -7.344725069625767 -12.988382215259142
20.568924921240196 -8.572407592212278 -12.695131465130324
23.39252790865911 -9.899990722891195 -12.554533917124035
26.733941087351415 -12.053660245562352 -14.491191626534977
30.18969536356978 -13.6347630324665 -14.16780606982843
33.08640983706131 -13.856415074202863 -11.760652588071121
36.07042988870485 -13.792792670671309 -9.305378263135404
38.6623602832921 -13.816645413068635 -6.747432282371035
40.022585200014575 -11.14026516984705 -0.8328829382613243
40.72650849019751 -8.3262661544891 5.507010551495711
38.68451599896969 -6.316909062540131 8.002989067173097
35.87923130438945 -3.927420430035515 10.285839590543999
32.41847025667725 -2.5436659106471984 10.614006267392574
27.01447175900278 0.3448982109799236 12.82512892443256
21.4610057548234 2.242971852205178 12.672419831322772
18.59474424151837 2.7754499421097365 10.207252722749661
15.86812132942735 3.121751887602598 7.406218760827443
13.312202592824455 3.1071164464990417 4.785559824321044
12.719699349730854 1.853394040245298 1.130366579813827
14.332925629988083 -0.5552683177055542 -2.3894076495560763
13.97141977008468 -1.7415699660794426 -4.89456930164854
13.484638810349955 -2.876339923605561 -7.799359521293169
10.901163969006221 -2.6600076144234968 -10.400520647423114
7.202867182653432 -2.295292210955182 -13.316113104819557
3.669905504514754 -0.83086068712583 -13.909013720483507
-1.9615689572354695 0.8698574839219376 -16.34756505172693
-7.279357359394221 3.4831473632280754 -16.3608124836592
-9.366140814835402 5.909015582594333 -14.181477845718044
-11.517817633685427 7.775430909141707 -11.512313545386704
-13.579824752606225 9.284833673569473 -8.920872292239915
-13.45925203406211 10.111109131490613 -5.061926287292554
-10.922449760329151 10.361885037236739 -1.2581074331664046
-10.514610158903343 10.997659219651025 2.6223824254887953
-12.472295420142807 12.00088111500746 6.583054293306949
-12.463340609767128 12.194688944459708 8.437801754779008
-14.93681491497959 12.608525792673339 10.801288074592813
-17.500648109185505 12.541585677394814 13.428256555929652
-21.367699561236005 12.699208438735138 13.780641344198433
-25.366556924939847 12.901588140022305 11.571682543031871
-29.243142751334076 12.988036718654648 11.59884089947057
-32.95543358144961 12.995471246021218 14.134144099151444
-34.75426098432786 13.066976305322768 14.355255386587006
-36.62353829975419 12.908607896651533 16.850806914527965
-38.51555973030986 13.0020383387727 19.588268825901945
-37.873554552172145 12.661992636553592 25.872950411242773
-36.79940741982724 12.75182256104535 32.504414019183876
-34.10338851851588 12.850108255169152 35.082297002549474
-31.21323569974375 12.889579833631812 37.67290578075137
-28.598562348128844 13.128812320315959 40.02122297993126
-22.28323116963984 13.004857229792519 40.67305108026937
-15.620132057144657 13.177302999428534 40.77063836644757
-13.064305938121004 13.16310325621526 38.506929007566455
-10.711411144193358 12.99455373434609 35.67430300852241
-8.57845295453513 13.01961258807237 32.9650801924094
-8.738579661486497 12.849244523949112 29.16539218955793
-11.299262608439836 12.89672402886606 25.42485616113655
-11.748499428287648 12.716371316438302 21.560255665437612
-9.765354104674127 12.291110254858836 17.659985222507242
-9.741303195764857 12.11170968279914 15.833059355550951
-6.388963101062697 11.433725075111786 13.481929411479253
-2.8270857718222757 10.79437060298209 12.939940126813413
2.620129247167562 8.635639116790262 10.439172939560686
8.311452041503472 6.98239222040741 10.499484247818776
11.286489315033247 6.284915341956028 13.035692532613457
14.09108912286601 5.8912789654966256 15.890331525560784
16.451724383975552 5.259830131551809 18.577522735567452
16.929630912728324 5.844178327983124 22.403427782034793
15.072500974540063 7.2399487090626735 26.33113963521613
15.288433467294139 7.806043963168573 30.230439716197566
17.798202097177615 7.427088134969772 34.02373806189449
18.07386111534065 7.569395282923376 35.828335134426936
20.692465556255982 7.034662491649217 37.87749244377158
23.676901496624303 6.905827589830906 39.85534480643736
27.460330767775833 5.8185833534785365 39.717275129070046
30.916608593137184 4.142054246328257 37.397194347188716
34.60963822029186 2.9453153265490593 37.01478758626634
40.18685615967108 1.7228680518109456 38.81539836032294
42.44709148894812 1.1270029006029403 39.82719474571443
42.79406000886823 1.380916853607161 41.17017225784593
44.410941273620644 0.5783161871630398 42.28047156149207
43.064478315311376 1.560934775530893 42.512796735834804
44.28273631040283 0.3942076233755699 39.607734355249626
46.008111943485346 -0.5370418329850111 38.34441094364173
47.134334688148044 -1.24107592315832 36.486427889605906
48.48528672036617 -1.7462692649762062 36.520142208418264
48.33450864846203 -1.7131929968945627 38.323949576738606
45.802998318655376 -0.7324031359349968 36.370011843374364
44.07951890664423 -0.560360089286754 33.91662595682515
41.73673074172893 -0.49586849330831484 31.41686120854879
41.05309729348572 -1.1642184054706528 26.796130372422624
40.49956100046941 -2.4321494149460157 20.9856751305252
40.10462100190956 -3.4194859559515627 18.475878804644108
41.773982038560334 -5.123216020065838 15.815335041210968
43.02729305349536 -6.4464818361499425 12.94471256634939
44.41808973142946 -6.805270907351503 12.822882053218576
45.68229707001171 -8.211083154741175 11.120003762848969
45.89424496942973 -7.308259230848438 12.724712046669124
42.972711855481364 -7.015079031700985 10.853501988867402
41.280757371356366 -7.413602043397768 8.226805800273237
37.455144256308465 -10.758207479884977 -0.6439801714951607
38.38382507977506 -14.98469071216342 -9.209411632515712
39.49266635963128 -16.665841319837636 -11.604591847936604
40.75178028215042 -17.929356472214252 -13.430673103481853
41.93192120933947 -18.463272718668783 -13.438652007425949
42.08783595531877 -18.240185115806376 -11.546114098959261
39.02299620883899 -17.580305606126743 -13.73935481348184
36.95776705382864 -18.05886796169254 -16.47881354794448
34.646239692884755 -18.26034460619559 -18.62794277715265
33.59358941014494 -20.29694071657751 -24.402241808582936
32.59734874368021 -22.973559137252085 -30.272624589740776
34.16297935467965 -24.84216149959313 -32.60566224250353
34.97711558254152 -26.008769033916217 -34.90618215881857
36.29765232685177 -26.26275420472275 -35.078735065148805
36.967088377724224 -27.283085738028127 -36.61133285621804
37.61135130447438 -26.579749372883064 -35.21374436310095
34.369000850884106 -26.433342558103334 -36.80946849191162
32.938200647565296 -26.59955028572544 -38.47213135705755
31.078383411942802 -26.937913562630932 -39.89808795097038
30.913459230213498 -27.539180446366245 -41.190331035824066
32.68563207184393 -27.684387415998827 -41.002775450406446
30.94239213458815 -26.17181194425937 -38.704754947620124
28.72330724090438 -24.842827804214952 -37.429914847103106
26.510758110057182 -23.50974042488624 -35.66936470733209
20.731513574782372 -21.345720245160905 -36.138085915740675
14.418507165289748 -19.633182871309454 -36.664214424810055
11.460881076545126 -19.57268975136902 -38.89943095817374
8.920792986181368 -19.140023973167526 -40.58388543162678
8.86206809324659 -19.721516327458303 -42.03169507570976
7.025101098983771 -20.08745560588647 -43.66942892245317
8.87464321729962 -20.352872850330773 -43.29097875047587
6.942581555147338 -18.404752994566845 -41.33913080905809
3.5918045519511796 -16.449926290915492 -40.18759731713117
-4.859507636471876 -11.90917990409193 -37.86752443309023
-13.28261039043454 -9.846346671273915 -39.87478489268616
-18.157250033852428 -10.075568755029753 -42.94537357332786
-18.39073472986192 -10.75124226904369 -44.270971383315455
-16.51596210228779 -11.518043870719243 -44.15539469687766
-18.345603114517424 -9.425261735457346 -41.39722188203266
-20.69015118217779 -8.266420701161074 -39.564837042255895
-22.916281744252327 -7.1497044471593725 -37.08057050138909
-28.314034704155763 -6.586278708787175 -35.99708832957234
-34.05254857241982 -7.577279216733004 -36.656031692866485
-37.33787229102911 -7.786957017586422 -36.05384835072667
-40.84740563234392 -8.570163403486845 -36.07640800770671
-41.466939646229584 -9.361203294738113 -37.09333899777474
-43.31286601217666 -10.235634477887293 -37.19053625083288
-42.08884738273355 -10.242998472137026 -38.03026022302654
-42.64672652929312 -8.078500660371077 -35.35270346405197
-44.03090965698567 -7.009590526120486 -34.173017444649915
-46.98751097942909 -5.419349522393659 -33.34426253051228
-45.41455371032031 -6.89047124728225 -33.634401300349765
-42.97758252307369 -9.191176111488318 -36.20498161749935
-16.463982368702123 -10.772731394525158 -42.83037949649754
-10.213203169808647 -9.53722452456617 -38.13340730194901
0.1755284895583884 -15.190765488318704 -39.89379774500369
6.964536253628327 -19.255336027967434 -42.403201163897045
32.63705266208069 -27.05169633192301 -39.827860846552866
35.64970864817316 -26.891520365107 -36.72628974760219
40.7887679516649 -17.61440994728901 -11.691081079429008
36.75974930274196 -13.069712144174154 -6.777981459113311
38.652106645234475 -7.902900524730801 5.584926302751508
44.24685763477155 -7.642216857018553 10.997964756437609
47.08251828959747 -1.052810268219821 38.27935692125971
44.29619712451504 0.47007622592332154 41.031681379041785
-38.54034651845701 10.509894707540292 -6.4956047495453255
-37.73563268181621 12.686167862146903 6.7504259594159794
-2.5413415205617533 12.183757815264636 38.70895371062087
10.742702117949726 9.663428614230241 38.53577208757568
16.805537713316568 8.966875005021842 44.00906945803702
-7.89723694614284 13.448708903574348 44.10829140377925
-35.298381096552546 12.859510603587989 42.766168006144596
-38.546893159820364 12.925270290940574 39.89642589570271
-43.03011704960356 12.158596842255895 12.681499354401208
-44.253167585182744 8.668180631807033 -11.32257777314478