20.607666355935784 2.465252090017334 -16.27995125512913
16.680615456479053 0.20585846710611122 -18.767783920015123
11.480589279939045 0.17663495856722022 -21.441418043995007
2.243437655294921 2.386169321506544 -23.546348719918644
-5.940873832455666 3.520509285003223 -23.488634914000567
-14.660238431261238 3.8782624107116366 -19.411095919542266
-17.964387503587133 5.053708432941761 -16.23784480331832
-19.162487720666505 7.813462099078619 -11.404707202331942
-20.596711463746338 9.112831523539748 -5.6685303527816675
-22.037239128091983 8.897071866218987 -2.102297218055547
-20.87262972552219 10.17896269732685 1.5873847397933327
-18.11296359417049 13.02312359168831 4.0281043000124015
-16.636618031850805 14.353488648196022 7.589271788612982
-13.104977716536737 11.454203392057893 15.765078748168653
-10.277676892202928 5.848315031332251 17.82718510100703
-7.808864733766646 -2.2782184514419166 16.664117417625146
-8.56229164223015 -5.04313229508287 12.877939208569543
-7.342672737991502 -6.571561770427168 11.179664429856569
-5.757365819489788 -9.36021476195248 8.849280727492609
-3.411860597892341 -11.98032887419543 9.127498019245108
0.7313537587998756 -12.679992452049696 9.105856002367227
3.6273415176982478 -11.233052428901985 11.311899456737232
8.139392739048404 -9.698949027574963 12.316648056734774
10.385079080058516 -6.9088855285819335 13.95140731061223
10.398883146679951 -3.698850188894445 16.39910681811855
13.985296711540428 -2.605331822916753 16.629064575993358
16.457583758804528 1.7271079248761225 16.526816502178907
19.580187770579986 6.297588282784735 12.62335454726131
20.645474847042436 8.363810550823203 8.777745845869056
22.276994273446395 7.19907952127271 3.2682324941119623
23.414001130949984 3.4013885941583695 -1.7753364847173145
22.265924968705527 1.0632334019236958 -5.663419409359903
19.978113464679623 -3.587238516275213 -8.579222745534567
18.389736297816526 -5.724289450866318 -7.677249632490941
14.743749641284378 -8.254658596956387 -8.00072168083816
11.987135966106633 -10.950592647800539 -6.006476269145954
10.905015953450635 -12.32918457736917 -2.437644928821916
7.239025521186476 -13.065946930874645 -2.633066660675496
3.725771751875259 -15.522800657405611 -1.019230091298257
-0.7157779139942475 -16.546545381892273 -2.962917733159646
-2.081989626582283 -15.891929882696738 -6.789958285482309
-4.80535687007016 -13.991879473713656 -10.00791954626937
-4.933884286652328 -11.901643188944272 -13.558140149895673
-2.839519775097165 -10.251401623737753 -17.406869562648776
-3.0272407091925477 -7.759658311295259 -20.696344125501916
-5.4638020170797486 -4.362658021122829 -22.8524415337561
-7.845884734956281 0.6443315642248724 -23.345436106310586
-9.734042382026999 4.590970702964995 -21.809400167906645
-13.586449174540435 6.253811852744407 -19.65598172404247
-17.27739396211821 7.359178500769251 -16.14043381450658
-21.378644652435263 4.697911239016384 -11.849791645107665
-21.065408358098534 -0.07414186077339886 -5.408830445187447
-18.540186852859694 -3.84124168179612 -3.0816611946116788
-14.7455267577822 -7.03398771311339 0.7376127600012949
-10.311892265282161 -10.98836394430081 1.8463511274231716
-7.281909692248469 -14.43373382499868 -0.01728735456467234
-4.050039676887897 -15.56943551199883 -3.2212484495270504
-4.123579884241492 -14.915571242450886 -6.208501199835368
-2.3399278144140037 -14.224670134449589 -10.45823368134291
-2.8873866890832365 -12.80764259588272 -14.291019007454116
-5.288909124052738 -10.066903272814686 -16.85736871390919
-5.12028328418871 -6.969718314719169 -19.856762096100237
-2.2938107490188866 -5.431798852822378 -21.744531249033916
1.9375475397893787 -1.100069560900519 -23.805035747057506
11.333594587998967 2.701496327239715 -20.87488484648298
19.212250608765856 -0.5815967911353146 -16.014283364070366
19.936172053745786 -3.3489589865239733 -11.950753560574977
17.485091421772474 -6.37588767323725 -9.611223866952603
16.164616217554922 -8.564406581139686 -6.02279302974109
13.092142129264735 -10.530165993358395 -4.025398167833681
9.454928148718885 -12.142665123326218 -4.278173459452372
8.728818101886553 -13.79754188498142 -1.0267654451184285
5.450111851252695 -14.183648778700388 2.1411438365741633
3.8446909368404785 -12.968661642566332 8.100346338708494
5.42839217033136 -11.629154873930494 9.836150501657267
6.079845012605618 -8.50824195215307 13.365717255780359
8.595511570336946 -6.2779873402100135 15.407573456882792
12.333483400261024 -4.8150953067549125 15.459039566018454
11.989716520765185 -1.3648710088561558 16.962196707641468
13.708873262498159 1.998058444439971 18.334537044818976
12.905636379976038 8.831955562202213 19.70322677982983
10.20538865825948 13.763186021748275 19.193674395162137
6.970444695664019 14.640743285033729 19.25792168470243
2.920942496910613 15.387925404047746 20.021856562194355
0.40241862705626996 15.417897220167525 19.858398823167118
-4.2034111378092005 12.08836582806389 21.183447526253467
-8.267026304683084 5.69516721591432 20.21365518339626
-10.065842881765128 1.8991357836201175 17.07023178024219
-9.139751136552182 -1.3916630033374877 14.743640552726246
-6.630352082438038 -5.324048651814898 14.151827299552103
-6.142970239822825 -7.8808825809670076 12.75997619866378
-5.224534076985192 -10.446677276684222 10.70317005666214
-5.47563042777065 -11.969217245301861 6.140295835879978
-7.479119904016616 -12.152590821115641 2.331967073952529
-14.961995884120475 -8.356328361303849 -1.6072588726996326
-20.561399729701083 -1.3647579724222498 -1.451470207257596
-22.05906149927694 3.1743415414761356 -3.346699320639036
-21.688871839337693 7.480966640697105 -3.4930238549949117
-20.11702883257216 10.0312151062016 -3.017238105459384
-19.613207681903834 12.120227200327333 0.38725203751496323
-18.129486766757328 12.554673876740182 8.680094700554449
-14.387916075568633 14.210370181393458 10.938341632735096
-12.072471279761578 14.882507155636361 14.214481513968815
-5.447937205313595 15.52654230657229 18.732393114558757
5.316187670970869 13.543213150407443 21.789136506686436
13.39403158955085 11.983346904756566 17.608168626262525
18.760954050446845 9.546133487757169 12.853935045126336
21.257733201241017 6.24507754969644 9.472247898341806
22.274668213990726 4.686506851921586 4.0446045519580585
22.239924944756325 5.280938554280496 -2.1894830375321135
22.39571287046103 4.496541846106964 -5.869676488236713
9.625793323575031 11.909790505956764 20.572827545149945
0.31153730358082665 14.095566109133742 21.879635821699548
-19.1541380102607 -3.331344383098989 -0.8994733467027629
-10.441084647953174 -11.833329078296131 -0.2977344306964653
16.295787713677782 2.334677805897897 -18.087223588546102
20.545802936937815 2.506102485427833 -16.311000829652308
16.077776566417516 0.29499611595714725 -18.158551835996487
11.462784129671066 0.197873659452148 -21.59200031635932
2.1400185422780265 2.1838508835608264 -23.4527682617834
-5.992777149718507 3.4771056737005877 -23.380217559739574
-14.7475845695165 3.788363952460768 -19.34801775183605
-18.335175518449333 5.338497105840564 -16.61422317789152
-19.20125740603808 7.811355805023882 -11.332778846130648
-20.584733344886544 9.17479009906306 -5.646962690646522
-21.27722126486227 8.499252478558581 -1.871927248273316
-21.018284856496894 10.338898938109427 1.65064396280143
-18.72138317544531 13.676453574917815 4.174374558900652
-16.46144834879075 14.209832516395416 7.621720434964893
-13.082855610413668 11.447294720397922 15.772558863199002
-10.44460290519739 5.7222987797218225 17.940159420288257
-7.629574013345791 -2.2672487066761353 16.53391578961796
-7.884049705685748 -4.652434299052331 12.535384114034713
-7.480279790009868 -6.71969070743306 11.053255914429041
-6.393597828901871 -9.667628419609102 8.81417235558844
-3.4548219600647307 -12.029065349225446 8.931267827709451
0.777430193339865 -12.830579096818285 9.296149974235595
3.624553227512907 -10.775300621194503 10.944484957062187
8.15512200989261 -9.451101438384601 12.26482520241411
10.454408766393952 -7.2497803692393985 14.420014005264662
10.439385891477805 -3.6078658817895684 16.456576014519808
13.759871624198837 -2.162546116585382 15.918709421875896
16.437739280387426 1.787532457946071 16.54841537369504
19.778607557216446 6.1707576275031055 12.600705536106572
21.47770622247306 8.343883404713196 8.9666741405036
22.16006128948129 7.175319391404015 3.180053966253147
22.597618208445404 3.2195137129350755 -1.7782712689728726
22.25720809010597 1.0517310151259889 -5.689152306660572
19.967435164944074 -3.660591238889899 -8.383468980613623
18.752611411314742 -6.128686932665157 -7.900439163017846
14.718980516932218 -8.492061932285905 -8.063496338691035
11.751153090216048 -10.463449070060449 -5.823704895199143
10.80943214605733 -12.385098884738305 -2.349276399362337
7.4488721979349455 -13.8720698656822 -2.7632958261282283
3.5709431077844176 -15.510229333394529 -1.0555416909619548
-0.7134225509704584 -16.747265404802075 -3.107085142589007
-1.9669206195986042 -15.340169837236806 -6.661913099648298
-4.745209888204436 -13.736932966112587 -10.040089709379185
-5.090224786409046 -12.389160391022045 -13.834310923272659
-2.894724710077704 -10.353022796368942 -17.644262464883145
-2.891695786637582 -7.385619183551228 -20.251869200988846
-5.408564813272842 -4.198304488329017 -22.763093971084324
-8.022952890568906 0.6279485289115101 -23.47783110213465
-10.178111215590306 4.731996691077775 -22.548535507707673
-13.675231637735115 6.306859585185069 -19.560335726830328
-16.886005810461626 7.0519751228802505 -15.783720095740223
-21.293596367611222 4.662092609304455 -11.732251154516566
-21.038548380076797 -0.14994498818564259 -5.363774385009041
-19.029784249606333 -4.136720022997774 -2.9759290514981367
-14.750364927509876 -7.182141791064587 0.8120728037793838
-10.020055732682094 -10.604750568830164 1.5308972044114124
-7.101417387523616 -14.284644023409744 -0.07147225983705852
-4.105030982577642 -15.536206434259913 -3.3191564216994776
-4.266451636079649 -15.473175656152137 -6.3131806910634465
-2.3978254562850094 -14.393355935893688 -10.64302621417011
-2.7447192441131736 -12.320658124923563 -14.028391451646494
-5.289423800165939 -9.81702023231408 -16.823063082169018
-5.274760809471803 -7.354701953540314 -20.27932639980026
-2.82207387704811 -5.32882343870367 -22.0344873769123
1.9464127151854922 -1.0727133732468204 -23.771511638284295
11.448601943529392 2.771414103291818 -20.95515890210368
19.120212881187456 -0.5591565748981353 -15.825771238556577
19.920926630123116 -3.5124795998915608 -12.05110352804226
16.98132693859194 -5.889813031442574 -9.565243601814345
15.964312787021786 -8.462085327965077 -5.885724343336736
13.301979942687629 -11.027566871165519 -4.2072727906622305
9.355526759291225 -12.199641800235167 -4.239019449418492
8.41359928592773 -13.038033709164374 -0.8465490965749041
5.4661653606966025 -14.219688568936377 2.1874849521279485
4.163814427871979 -12.86108512961831 8.009283939944758
5.415306683570621 -12.090589654205104 10.207519622400545
6.227364876583557 -8.593786883724617 13.556626749133073
8.53682672676783 -5.920025851116705 14.944662160008571
12.432989685543607 -4.701736718554448 15.495570832777425
12.29586184837573 -1.6598463855507788 17.734873095908913
13.660336898186667 2.1182780394533096 18.171975620959856
12.885773090540438 8.821620860755582 19.761912742035342
9.704973358345327 13.156514567258156 18.78107665563798
6.927786400379146 14.606194555253667 19.45136654301642
2.784652468598885 15.395390119633907 19.568847583537014
0.38208537021623723 15.82602706491385 20.31727658750742
-4.272257500862738 12.073511952214378 21.171129438737868
-8.265938613051699 5.644853285721332 20.195308373558575
-9.357300371723987 2.0648516231901795 16.60020673358288
-9.282035935024624 -1.5461709514908055 14.794141233706156
-7.2483204517697155 -5.8348005509164835 14.436287808867661
-6.119566986300041 -7.978770203351188 12.658385192124099
-4.780695506620137 -10.087321721026123 10.60674317182594
-5.257756430910733 -11.889785915513972 6.012964945583651
-7.5847551795798385 -12.047018522529086 2.345906519616483
-15.128858687767206 -8.35914203842029 -1.587359218749172
-20.337538131811225 -1.2051996994591982 -1.8289360165025224
-21.95287467229503 3.2849213504385926 -3.2875598032084685
-22.24482161900423 7.751039432536089 -3.53071174617115
-20.847741366757777 10.540521483361829 -3.0698229865277256
-19.419264841381924 12.025656624796438 0.46977153170218305
-18.218161971082722 12.72641681785278 8.792398043558766
-14.771196791194761 14.917156739229995 11.33039703027847
-11.925420419948484 14.714685645235848 14.20172693203765
-5.396408953797173 15.637983918593935 18.8464803943347
5.458118282201841 13.532052885400153 21.770435948390475
13.338764065331551 11.81741407926407 17.484199182157468
18.78579077014328 9.535124608198249 12.818398293509322
20.499594100391583 6.253386727722884 9.079385009841815
22.41292538154494 4.725211064441695 3.981356846930655
23.049059433186237 5.348497358056662 -2.3733608108171964
22.216890619718647 4.464425089797708 -5.911830693284512
9.986075956034163 12.557657116192118 21.063350905488406
0.37761919379143344 13.690864364097402 21.41866603166854
-18.683287404623258 -3.0098500539736697 -0.9715808235475407
-10.746021834109037 -12.19938536273842 0.020926127854432746
16.641126659736727 2.377621408340488 -18.858822714995373