20.576734646436794 2.4856772877225835 -16.29547604239072
16.379196011448286 0.25042729153162924 -18.463167878005805
11.471686704805048 0.1872543090096841 -21.516709180177166
2.191728098786474 2.285010102533685 -23.49955849085102
-5.966825491087081 3.4988074793519046 -23.434426236870074
-14.703911500388873 3.8333131815862007 -19.379556835689154
-18.149781511018233 5.196102769391163 -16.42603399060492
-19.1818725633523 7.812408952051251 -11.368743024231296
-20.59072240431644 9.143810811301403 -5.6577465217140945
-21.65723019647713 8.698162172388784 -1.9871122331644315
-20.94545729100955 10.258930817718138 1.6190143512973814
-18.4171733848079 13.349788583303063 4.101239429456527
-16.54903319032078 14.281660582295714 7.605496111788936
-13.093916663475207 11.450749056227908 15.768818805683825
-10.361139898700158 5.785306905527036 17.88367226064764
-7.719219373556213 -2.2727335790590257 16.599016603621553
-8.223170673957949 -4.8477832970676005 12.706661661302128
-7.4114762640006875 -6.645626238930114 11.116460172142808
-6.07548182419583 -9.513921590780791 8.831726541540524
-3.433341278978536 -12.004697111710438 9.029382923477279
0.7543919760698704 -12.755285774433993 9.201002988301411
3.625947372605577 -11.004176525048244 11.12819220689971
8.147257374470511 -9.575025232979783 12.290736629574441
10.419743923226235 -7.079332948910666 14.185710657938444
10.41913451907888 -3.6533580353420065 16.42784141631918
13.872584167869636 -2.3839389697510676 16.27388699893463
16.447661519595968 1.7573201914110967 16.537615937936973
19.67939766389821 6.234172955143919 12.612030041683939
21.06159053475775 8.3538469777682 8.872209993186328
22.218527781463838 7.187199456338361 3.224143230182555
23.005809669697697 3.3104511535467225 -1.7768038768450936
22.261566529405737 1.0574822085248423 -5.676285858010242
19.972774314811847 -3.623914877582556 -8.481345863074097
18.57117385456564 -5.9264881917657375 -7.788844397754393
14.731365079108295 -8.373360264621144 -8.032109009764598
11.869144528161343 -10.707020858930493 -5.915090582172549
10.857224049753984 -12.357141731053737 -2.3934606640921263
7.343948859560711 -13.469008398278422 -2.698181243401862
3.648357429829837 -15.51651499540007 -1.037385891130106
-0.7146002324823528 -16.646905393347176 -3.0350014378743264
-2.0244551230904433 -15.61604985996677 -6.7259356925653035
-4.775283379137298 -13.864406219913121 -10.024004627824278
-5.0120545365306866 -12.14540178998316 -13.696225536584166
-2.8671222425874356 -10.302212210053344 -17.525566013765964
-2.959468247915065 -7.572638747423244 -20.474106663245383
-5.436183415176297 -4.280481254725923 -22.80776775242021
-7.934418812762588 0.6361400465681912 -23.41163360422262
-9.956076798808652 4.661483697021385 -22.17896783780716
-13.630840406137779 6.280335718964737 -19.608158725436393
-17.081699886289915 7.205576811824751 -15.962076955123402
-21.336120510023243 4.680001924160418 -11.791021399812116
-21.051978369087664 -0.11204342447952072 -5.386302415098247
-18.78498555123301 -3.988980852396947 -3.0287951230549077
-14.74794584264604 -7.108064752088989 0.7748427818903394
-10.165973998982125 -10.796557256565487 1.688624165917292
-7.191663539886041 -14.359188924204211 -0.04437980720086543
-4.07753532973277 -15.552820973129375 -3.270202435613264
-4.195015760160571 -15.194373449301509 -6.260840945449407
-2.368876635349507 -14.309013035171638 -10.55062994775651
-2.816052966598205 -12.564150360403142 -14.159705229550307
-5.28916646210934 -9.941961752564385 -16.8402158980391
-5.197522046830256 -7.162210134129741 -20.06804424795025
-2.557942313033498 -5.380311145763024 -21.889509312973107
1.941980127487433 -1.0863914670736698 -23.7882736926709
11.391098265764173 2.736455215265767 -20.915021874293323
19.166231744976653 -0.570376683016725 -15.920027301313477
19.92854934193445 -3.4307192932077673 -12.000928544308623
17.233209180182207 -6.132850352339912 -9.588233734383474
16.064464502288352 -8.513245954552382 -5.954258686538912
13.197061035976184 -10.778866432261957 -4.116335479247955
9.405227454005056 -12.171153461780694 -4.258596454435431
8.571208693907142 -13.417787797072897 -0.9366572708466663
5.458138605974652 -14.201668673818384 2.164314394351056
4.0042526823562286 -12.91487338609232 8.054815139326626
5.421849426950991 -11.859872264067798 10.021835062028906
6.153604944594589 -8.551014417938841 13.461172002456712
8.56616914855239 -6.099006595663359 15.176117808445682
12.383236542902313 -4.75841601265468 15.47730519939794
12.142789184570457 -1.5123586972034673 17.34853490177519
13.68460508034241 2.0581682419466403 18.253256332889414
12.895704735258233 8.826788211478897 19.732569760932584
9.955181008302404 13.459850294503216 18.987375525400058
6.949115548021582 14.623468920143697 19.354644113859425
2.852797482754749 15.391657761840824 19.795352072865686
0.3922519986362536 15.621962142540687 20.087837705337268
-4.237834319335966 12.080938890139135 21.177288482495666
-8.26648245886739 5.670010250817825 20.204481778477415
-9.711571626744558 1.9819937034051485 16.835219256912534
-9.210893535788403 -1.4689169774141466 14.768890893216204
-6.939336267103877 -5.579424601365691 14.294057554209882
-6.131268613061436 -7.9298263921590975 12.70918069539394
-5.002614791802665 -10.266999498855172 10.65495661424404
-5.366693429340691 -11.929501580407914 6.076630390731812
-7.531937541798226 -12.099804671822366 2.3389367967845063
-15.045427285943845 -8.357735199862068 -1.5973090457244024
-20.449468930756154 -1.284978835940724 -1.640203111880059
-22.00596808578599 3.2296314459573643 -3.317129561923752
-21.966846729170964 7.616003036616597 -3.511867800583031
-20.48238509966497 10.285868294781714 -3.043530545993555
-19.516236261642874 12.072941912561884 0.42851178460857314
-18.173824368920027 12.640545347296479 8.736246372056605
-14.579556433381693 14.563763460311726 11.134369331506782
-11.998945849855033 14.798596400436105 14.20810422300323
-5.422173079555382 15.582263112583119 18.789436754446733
5.387152976586361 13.537633017903799 21.779786227538455
13.366397827441197 11.900380492010317 17.546183904209993
18.773372410295046 9.540629047977708 12.836166669317825
20.878663650816303 6.249232138709662 9.27581645409181
22.343796797767823 4.705858958181638 4.012980699444356
22.644492188971284 5.314717956168579 -2.281421924174655
22.306301745089826 4.480483467952335 -5.890753590760615
9.805934639804597 12.23372381107444 20.818089225319177
0.34457824868613 13.893215236615575 21.64915092668404
-18.918712707441976 -3.1705972185363294 -0.9355270851251518
-10.593553241031103 -12.016357220517273 -0.13840415142101628
16.46845718670726 2.3561496071191925 -18.47302315177074